0.7839242 3.408816 -12.4247 -0.06739241 0.1201184 0.9904695
-1.843083 1.530376 -11.83136 0.1953084 0.3079624 0.9311358
-1.22647 13.87374 -6.040934 0.133647 -0.926374 0.3520933
0.9641494 13.6025 -6.810149 -0.08541491 -0.89925 0.4290146
-1.476307 14.40293 -3.777865 0.1586307 -0.9792926 0.1257864
9.384912 1.202244 -4.057272 -0.9274912 0.3407757 0.153727
-4.288528 8.151859 -10.77277 0.4398529 -0.3541859 0.8252768
2.397683 5.605951 -12.20373 -0.2287683 -0.09959507 0.9683728
4.626258 6.679614 -11.19872 -0.4516258 -0.2069614 0.8678716
0.6978128 2.675368 -12.31345 -0.05878127 0.1934632 0.9793451
5.174617 1.612679 -10.60491 -0.5064617 0.2997321 0.8084906
0.407043 -0.2647619 -11.24631 -0.0297043 0.4874762 0.8726309
6.025392 11.62573 -6.493372 -0.5915392 -0.701573 0.3973371
6.652895 11.80179 -4.858525 -0.6542895 -0.7191789 0.2338523
8.712628 4.940383 -7.607791 -0.8602629 -0.03303833 0.5087792
1.430079 4.328154 -12.42848 -0.1320079 0.02818465 0.9908479
-4.519219 13.47071 -2.761067 0.462922 -0.8860711 0.02410689
-4.38589 12.2259 -7.187441 0.449589 -0.7615902 0.4667441
0.5234478 13.509 -7.06278 -0.04134478 -0.8899 0.4542781
5.423081 12.64302 -5.211062 -0.5313081 -0.8033017 0.2691062
6.332901 4.35369 -10.34367 -0.6222901 0.025631 0.7823669
-3.877728 12.87164 -6.50036 0.3987728 -0.8261644 0.398036
-1.458911 1.551114 -11.91051 0.1568911 0.3058886 0.9390513
-1.264842 14.09096 -5.387279 0.1374843 -0.9480956 0.286728
2.402642 13.7618 -5.834867 -0.2292642 -0.9151801 0.3314867
3.780243 8.013526 -11.1771 -0.3670243 -0.3403526 0.8657097
-7.819939 9.88489 -5.568214 0.7929939 -0.5274889 0.3048213
-4.140256 0.7598288 -10.71216 0.4250257 0.3850172 0.819216
1.432798 5.242044 -12.41195 -0.1322798 -0.06320439 0.9891953
-4.789962 13.0213 -4.809205 0.4899963 -0.8411297 0.2289204
-2.737507 11.29699 -9.388474 0.2847508 -0.6686987 0.6868473
-1.210458 8.668873 -11.56334 0.1320458 -0.4058873 0.9043337
9.963791 4.960681 -4.187284 -0.9853791 -0.03506813 0.1667283
-8.733568 7.562154 -6.136089 0.8843567 -0.2952154 0.361609
8.302721 4.191674 -8.23877 -0.819272 0.04183258 0.571877
3.612207 5.650052 -11.82875 -0.3502208 -0.1040051 0.9308751
-7.376985 0.4571719 -7.687116 0.7486984 0.4152828 0.5167117
-6.490913 12.11228 -2.899082 0.6600913 -0.7502282 0.03790815
2.357361 10.54131 -10.25104 -0.2247361 -0.5931309 0.7731038
-8.12747 9.22983 -5.806528 0.823747 -0.461983 0.3286528
4.585907 13.45007 -3.868863 -0.4475908 -0.8840069 0.1348864
-8.54715 -0.194097 -3.925136 0.865715 0.4804097 0.1405135
-1.458182 14.08126 -5.319297 0.1568182 -0.9471259 0.2799297
-5.25486 12.87617 -4.219625 0.5364861 -0.8266169 0.1699624
1.664338 -0.09104347 -11.20817 -0.1554338 0.4701043 0.8688166
-0.9662524 13.25007 -7.43842 0.1076253 -0.8640071 0.491842
-6.469182 12.11998 -3.080861 0.6579182 -0.750998 0.05608611
-0.1884407 14.39151 -4.577436 0.02984408 -0.9781507 0.2057437
5.301176 6.244451 -10.90929 -0.5191177 -0.1634451 0.8389294
5.352019 3.623533 -10.97861 -0.524202 0.09864672 0.8458612
-7.045845 0.6825862 -8.296618 0.7155845 0.3927414 0.5776617
-1.40029 0.426507 -11.47642 0.151029 0.4183494 0.8956417
6.115426 5.006944 -10.50607 -0.6005425 -0.03969436 0.7986069
4.0892 4.816711 -11.69187 -0.39792 -0.02067108 0.9171872
-4.395799 0.3142958 -10.3459 0.45058 0.4295705 0.7825899
6.211514 8.913242 -9.17234 -0.6101514 -0.4303242 0.6652341
-0.0394922 2.119461 -12.20374 0.01494922 0.249054 0.9683743
-8.534526 8.796158 -5.30357 0.8644526 -0.4186158 0.2783569
-7.795742 10.67501 -3.3655 0.7905742 -0.6065012 0.08455002
-1.433155 13.42648 -6.979632 0.1543155 -0.8816482 0.4459633
3.687082 13.10761 -6.392346 -0.3577083 -0.8497613 0.3872346
-9.390992 6.304895 -5.138871 0.9500992 -0.1694895 0.261887
-5.634498 11.54821 -6.863048 0.5744498 -0.6938205 0.4343047
-4.148409 13.58854 -3.638831 0.425841 -0.897854 0.1118831
-3.245466 0.999094 -11.2207 0.3355466 0.3610907 0.8700701
-8.098212 9.108717 -6.03949 0.8208213 -0.4498718 0.3519487
-5.204239 11.25783 -7.770254 0.5314239 -0.6647835 0.5250253
7.834697 0.1993365 -7.088927 -0.7724698 0.4410664 0.4568927
-2.342447 13.45823 -6.481609 0.2452447 -0.8848229 0.3961609
4.206028 11.30886 -8.712561 -0.4096028 -0.6698862 0.619256
3.120443 4.165371 -12.04573 -0.3010443 0.04446287 0.952573
0.7970622 8.549192 -11.68574 -0.06870623 -0.3939192 0.9165736
-4.588308 12.78984 -5.839048 0.4698308 -0.8179843 0.3319049
2.58022 8.472 -11.40724 -0.247022 -0.3862 0.8887236
1.944109 0.8282664 -11.59384 -0.1834109 0.3781734 0.9073838
-7.728109 2.491477 -8.357458 0.7838109 0.2118523 0.5837457
9.759479 2.017379 -2.927285 -0.9649479 0.2592621 0.04072854
1.894009 14.38949 -3.605795 -0.1784009 -0.9779487 0.1085795
-6.880733 6.621473 -9.38175 0.6990736 -0.2011473 0.6861749
-3.13161 13.85079 -4.544811 0.324161 -0.9240785 0.2024809
-2.075274 13.50166 -6.540329 0.2185274 -0.8891655 0.4020329
6.387845 2.949269 -10.12465 -0.6277844 0.1660731 0.7604647
5.626284 1.066645 -10.07084 -0.5516284 0.3543355 0.7550844
-5.064696 4.14287 -11.06426 0.5174696 0.04671302 0.8544256
-8.020438 9.702227 -5.34227 0.8130438 -0.5092226 0.282227
-8.695611 0.9065118 -5.477263 0.880561 0.3703488 0.2957263
9.702728 2.440543 -4.329147 -0.9592729 0.2169457 0.1809148
-8.628679 2.324677 -6.811014 0.8738679 0.2285323 0.4291013
7.690437 5.625718 -8.96246 -0.7580437 -0.1015718 0.644246
-0.8332018 3.939244 -12.4528 0.09432019 0.06707563 0.9932797
-5.219781 8.948852 -9.784144 0.5329782 -0.4338852 0.7264144
-3.527561 9.332789 -10.54891 0.3637561 -0.4722789 0.8028911
8.500816 3.624849 -7.870109 -0.8390817 0.09851508 0.5350109
2.253904 14.36791 -2.952331 -0.2143903 -0.9757907 0.04323303
7.983222 0.2585411 -6.887744 -0.7873222 0.4351459 0.4367743
-7.116687 5.087603 -9.415424 0.7226689 -0.04776025 0.6895424
-4.226839 12.29883 -7.218269 0.433684 -0.7688829 0.4698269
5.797697 12.77447 -3.515729 -0.5687697 -0.8164474 0.09957285
2.300911 7.728227 -11.76535 -0.2190911 -0.3118227 0.9245354
0.2965486 13.29029 -7.481632 -0.01865486 -0.8680289 0.4961632
-9.175467 2.32584 -5.446212 0.9285467 0.228416 0.2926212
6.265286 1.140535 -9.596388 -0.6155286 0.3469465 0.7076387
9.664712 4.741007 -5.467936 -0.9554712 -0.01310067 0.2947935
9.508014 7.939727 -3.288267 -0.9398015 -0.3329727 0.07682651
0.706072 1.097191 -11.86371 -0.0596072 0.3512809 0.9343708
-5.128669 -0.3277373 -9.460828 0.523867 0.4937738 0.6940827
3.569777 11.59324 -8.786122 -0.3459778 -0.6983241 0.6266122
-6.513068 2.606861 -9.739584 0.662307 0.2003139 0.7219584
5.687688 2.010508 -10.40239 -0.5577689 0.2599493 0.7882387
5.041666 1.957716 -10.80517 -0.4931665 0.2652284 0.8285171
-2.223537 12.47884 -8.232796 0.2333537 -0.7868836 0.5712796
-4.076129 1.066072 -10.88163 0.418613 0.3543929 0.8361632
5.589504 6.78482 -10.59745 -0.5479504 -0.217482 0.807745
1.559378 2.054261 -12.07863 -0.1449378 0.255574 0.9558635
-1.169002 14.36852 -4.290703 0.1279002 -0.9758523 0.1770705
-1.552759 12.52894 -8.395845 0.1662759 -0.7918944 0.5875846
-2.399766 10.20608 -10.41842 0.2509766 -0.5596076 0.7898419
-5.325644 12.86584 -4.034888 0.5435644 -0.8255841 0.1514887
-4.830469 12.92506 -5.059999 0.4940468 -0.8315058 0.2539999
-7.696418 9.267492 -6.687445 0.7806419 -0.4657492 0.4167445
-3.981539 13.14839 -5.737961 0.4091539 -0.8538386 0.3217961
1.486412 13.67365 -6.514464 -0.1376412 -0.906365 0.3994462
-8.107779 2.093058 -7.632056 0.8217778 0.2516942 0.5112057
-8.94156 3.99747 -6.726432 0.905156 0.06125298 0.4206432
-3.732575 5.899739 -11.66173 0.3842575 -0.1289739 0.9141728
6.330108 12.28829 -4.054333 -0.6220108 -0.7678286 0.1534334
-5.399531 12.69182 -4.600692 0.5509531 -0.8081818 0.2080692
3.369815 12.53088 -7.680737 -0.3259815 -0.7920885 0.5160736
2.326873 -0.2365828 -10.98145 -0.2216873 0.4846583 0.8461449
5.228341 9.640396 -9.48403 -0.5118341 -0.5030397 0.6964028
4.787306 12.54189 -6.419731 -0.4677306 -0.7931892 0.3899732
6.12103 4.53896 -10.5114 -0.601103 0.007104062 0.79914
-7.518858 6.473072 -8.711081 0.7628859 -0.1863072 0.6191081
10.02591 5.514977 -3.445074 -0.991591 -0.09049764 0.09250721
-4.344305 11.09358 -8.694333 0.4454305 -0.6483578 0.6174333
1.050736 5.824313 -12.40132 -0.09407364 -0.1214313 0.9881319
6.571743 2.668267 -9.900757 -0.6461742 0.1941734 0.7380756
-7.428646 11.15842 -3.05572 0.7538646 -0.6548421 0.05357186
1.16664 11.55491 -9.637001 -0.105664 -0.6944913 0.7117
-2.553004 2.876883 -12.00181 0.2663004 0.1733118 0.948181
-7.244225 11.34951 -3.223114 0.7354225 -0.6739511 0.0703114
7.475541 3.953212 -9.251822 -0.7365541 0.06567877 0.6731823
-2.019179 14.37214 -2.928905 0.212918 -0.9762141 0.04089039
9.698315 5.892965 -5.05342 -0.9588315 -0.1282965 0.2533419
-5.221805 11.72921 -7.090423 0.5331805 -0.7119207 0.4570422
10.04142 5.759132 -2.735479 -0.9931418 -0.1149132 0.02154795
5.774116 10.78499 -7.977767 -0.5664117 -0.6174995 0.5457767
-5.125882 -0.05832815 -9.646868 0.5235882 0.4668328 0.7126868
8.163532 8.387797 -7.088246 -0.8053532 -0.3777797 0.4568245
1.588845 14.35557 -4.204292 -0.1478845 -0.9745572 0.168429
0.6179004 3.523564 -12.44782 -0.05079003 0.1086436 0.9927824
-0.762736 10.81756 -10.31131 0.08727362 -0.6207563 0.7791309
-1.516261 0.4090033 -11.44787 0.1626262 0.4200997 0.8927872
4.743468 13.38922 -3.726797 -0.4633469 -0.8779215 0.1206797
2.69348 0.9910879 -11.47707 -0.258348 0.3618913 0.895707
1.536266 14.00442 -5.636183 -0.1426266 -0.9394423 0.3116181
-9.118367 7.690287 -4.832806 0.9228367 -0.3080287 0.2312806
7.273828 0.07029009 -7.818171 -0.7163827 0.453971 0.5298172
3.102418 14.13516 -3.082737 -0.2992418 -0.9525165 0.05627376
9.534799 1.361733 -3.308626 -0.9424799 0.3248267 0.07886259
-0.3004612 13.07546 -7.8273 0.04104613 -0.8465465 0.5307301
-5.75577 12.67608 -3.24879 0.5865771 -0.8066077 0.072879
-3.703256 13.71498 -4.119523 0.3813255 -0.9104977 0.1599522
4.711223 13.1025 -5.109646 -0.4601223 -0.8492496 0.2589646
-2.376102 12.25436 -8.468365 0.2486102 -0.764436 0.5948365
-0.5847872 14.35242 -4.665363 0.06947874 -0.9742417 0.2145362
5.750468 12.71128 -4.118254 -0.5640467 -0.8101279 0.1598254
4.321797 11.93752 -7.864918 -0.4211797 -0.7327525 0.5344918
2.814241 13.48831 -6.24327 -0.2704241 -0.8878307 0.372327
-0.09646341 12.95333 -8.028733 0.02064634 -0.8343335 0.5508733
-1.08268 10.8348 -10.25494 0.119268 -0.6224806 0.7734941
-4.137578 12.93929 -6.06697 0.4247578 -0.832929 0.3546971
-0.26955 12.70274 -8.382035 0.03795501 -0.8092743 0.5862035
8.592683 3.924701 -7.771137 -0.8482684 0.06852996 0.5251136
-0.8780388 12.5854 -8.471205 0.09880385 -0.7975396 0.5951204
-4.662925 13.0131 -5.090429 0.4772925 -0.8403099 0.2570429
7.613652 0.4911036 -7.690097 -0.7503652 0.4118897 0.5170097
3.825427 13.87163 -3.16642 -0.3715427 -0.9261627 0.06464204
-0.01127228 14.22862 -5.252666 0.01212723 -0.9618619 0.2732666
2.410977 12.4655 -8.264269 -0.2300977 -0.7855501 0.5744268
-0.7625529 10.68549 -10.41475 0.08725528 -0.6075491 0.7894748
4.556559 12.72068 -6.320663 -0.4446559 -0.8110676 0.3800663
-2.59693 13.73573 -5.584897 0.2706931 -0.9125729 0.3064897
-3.432046 3.655307 -11.82282 0.3542047 0.09546936 0.9302821
2.717507 14.04787 -4.551617 -0.2607508 -0.9437873 0.2031617
2.3233 14.27126 -3.847196 -0.22133 -0.9661255 0.1327196
-4.812887 11.76888 -7.471328 0.4922887 -0.7158877 0.4951328
-3.708899 7.879932 -11.16428 0.3818899 -0.3269932 0.8644279
-4.694564 6.340186 -11.11783 0.4804565 -0.1730186 0.8597826
-1.086168 8.894951 -11.47591 0.1196168 -0.428495 0.8955913
2.150525 12.31184 -8.563004 -0.2040524 -0.7701842 0.6043004
-2.099815 14.3456 -3.098672 0.2209815 -0.9735597 0.05786717
0.7531289 9.702024 -11.10241 -0.06431291 -0.5092024 0.8582405
-8.502301 1.589482 -6.607145 0.8612301 0.3020518 0.4087143
0.9210161 14.38747 -4.454792 -0.08110156 -0.9777465 0.193479
8.240034 1.145094 -7.199419 -0.8130034 0.3464905 0.4679419
3.7888 13.63448 -4.761683 -0.3678801 -0.9024482 0.2241683
9.156109 8.823656 -3.162665 -0.9046109 -0.4213656 0.06426655
-8.750542 1.613685 -6.057357 0.8860542 0.2996315 0.3537357
-8.510378 8.199818 -6.098032 0.8620377 -0.3589818 0.3578032
-6.467004 5.806058 -9.957235 0.6577004 -0.1196058 0.7437235
-4.575079 0.5222392 -10.352 0.4685079 0.4087761 0.7832001
3.257366 13.9188 -4.374834 -0.3147366 -0.9308796 0.1854835
2.404039 14.32319 -3.14553 -0.2294039 -0.9713192 0.0625529
6.800369 9.400454 -8.202475 -0.669037 -0.4790454 0.5682474
-7.429005 0.1661029 -7.358925 0.7539005 0.4443898 0.4838924
-5.948842 8.069893 -9.683768 0.6058842 -0.3459893 0.7163768
-3.909931 12.73162 -6.748419 0.4019932 -0.8121615 0.4228418
-0.8541318 14.36815 -4.481858 0.09641317 -0.9758154 0.1961856
7.622438 2.469945 -8.763672 -0.7512438 0.2140055 0.6243672
9.32209 4.191943 -6.388153 -0.9212092 0.04180575 0.3868152
3.065305 4.596017 -12.07332 -0.2955306 0.001398325 0.9553323
4.061559 9.60364 -10.2303 -0.3951559 -0.499364 0.7710301
-4.232722 13.57398 -3.40763 0.4342723 -0.8963976 0.08876278
-6.260649 12.30051 -3.040464 0.6370648 -0.7690511 0.0520464
-7.332884 11.03995 -4.325329 0.7442884 -0.6429951 0.1805328
-0.07882781 14.11427 -5.623754 0.01888278 -0.9504266 0.3103754
-6.086308 12.28643 -4.156507 0.6196309 -0.7676432 0.1636505
-5.801047 3.675329 -10.53161 0.5911047 0.09346711 0.8011611
-8.696352 5.701663 -7.130471 0.8806352 -0.1091662 0.4610471
2.857242 7.489309 -11.694 -0.2747242 -0.2879309 0.9173998
-2.447223 1.42462 -11.64765 0.2557223 0.318538 0.9127648
-1.954034 14.35914 -3.353051 0.2064034 -0.9749143 0.08330518
-8.709964 0.1687675 -4.095972 0.8819964 0.4441233 0.1575972
9.469493 7.719584 -4.172385 -0.9359493 -0.3109584 0.1652385
-8.390927 9.597908 -4.209685 0.8500926 -0.4987907 0.1689685
4.985975 13.25439 -3.744497 -0.4875976 -0.864439 0.1224497
9.278407 4.798907 -6.508061 -0.9168407 -0.01889067 0.3988059
-3.649209 1.49628 -11.24772 0.3759208 0.311372 0.872772
3.088253 14.05809 -3.88516 -0.2978254 -0.9448087 0.1365159
-9.872897 4.188897 -2.925515 0.9982897 0.04211035 0.04055149
-8.711762 -0.08477879 -2.888217 0.8821761 0.4694779 0.03682168
6.366319 5.334918 -10.28743 -0.6256319 -0.07249179 0.776743
-6.140613 3.475172 -10.24282 0.6250612 0.1134828 0.7722825
-2.732291 0.9959769 -11.40033 0.284229 0.3614023 0.8880328
2.20935 14.0518 -5.058741 -0.209935 -0.9441797 0.253874
2.511165 9.349401 -10.99186 -0.2401165 -0.4739402 0.8471864
-0.07743835 14.08673 -5.70692 0.01874384 -0.947673 0.318692
-9.56601 2.104558 -2.832396 0.967601 0.2505442 0.03123975
-4.671296 13.3928 -2.559778 0.4781296 -0.8782803 0.003977656
-5.589109 12.21629 -5.628782 0.5699109 -0.7606289 0.3108781
2.757202 13.94399 -4.942599 -0.2647203 -0.9333988 0.24226
-5.649048 12.48526 -4.713985 0.5759049 -0.7875264 0.2193985
-1.524033 6.188968 -12.25842 0.1634033 -0.1578968 0.9738418
9.76005 3.283447 -4.782035 -0.965005 0.1326553 0.2262034
3.930432 13.71518 -4.101158 -0.3820432 -0.9105177 0.1581158
1.743575 4.32356 -12.38151 -0.1633575 0.02864404 0.986151
9.213113 2.290328 -5.948183 -0.9103114 0.2319672 0.3428183
1.275233 13.18029 -7.539198 -0.1165233 -0.857029 0.5019199
-1.619392 1.895298 -11.98782 0.1729392 0.2714702 0.9467819
