-7.622656 2.806246 -8.598856 0.7732657 0.1803754 0.6078856
3.076602 11.29262 -9.342157 -0.2966602 -0.6682622 0.6822158
-2.746129 1.092672 -11.43465 0.2856129 0.3517329 0.8914647
1.032311 9.872347 -10.97323 -0.09223107 -0.5262348 0.8453227
-9.547051 5.490207 -4.96266 0.9657052 -0.08802067 0.244266
-3.379665 13.21529 -6.23096 0.3489665 -0.860529 0.371096
-3.893407 12.61476 -6.98056 0.4003406 -0.8004758 0.446056
7.299277 -0.3044043 -7.43558 -0.7189276 0.4914404 0.4915581
9.378402 0.8731337 -2.884082 -0.9268402 0.3736867 0.03640815
-7.114532 8.102122 -8.487514 0.7224532 -0.3492122 0.5967514
8.146207 8.972502 -6.568202 -0.8036208 -0.4362502 0.4048203
-7.536559 0.05913973 -7.082872 0.7646559 0.4550861 0.4562872
0.7472398 5.243337 -12.47956 -0.06372399 -0.06333367 0.9959559
-6.405861 10.17026 -7.68014 0.6515861 -0.5560262 0.5160139
6.595955 11.16444 -6.389336 -0.6485955 -0.6554437 0.3869334
-5.733317 1.631008 -10.06859 0.5843318 0.2978992 0.7548593
-2.953362 12.82329 -7.332247 0.3063361 -0.8213288 0.4812247
1.86011 14.34975 -3.960263 -0.175011 -0.9739751 0.1440263
-5.287501 3.433052 -10.85557 0.5397502 0.1176948 0.8335572
8.988505 0.7180119 -4.974496 -0.8878506 0.3891988 0.2454494
1.092603 14.09093 -5.544314 -0.09826028 -0.9480929 0.3024313
-9.04603 1.200322 -4.651012 0.915603 0.3409678 0.2131012
2.443357 13.92986 -5.294101 -0.2333358 -0.931986 0.2774101
9.225484 0.5120068 -2.858249 -0.9115483 0.4097993 0.03382495
-4.13398 4.243462 -11.56734 0.424398 0.03665386 0.9047335
7.973128 2.148008 -8.186554 -0.7863128 0.2461993 0.5666553
6.379858 8.531634 -9.251245 -0.6269858 -0.3921635 0.6731246
-2.04019 10.6286 -10.21111 0.215019 -0.6018599 0.7691109
-2.069801 2.008317 -11.92636 0.2179802 0.2601684 0.9406365
-7.757127 0.7020028 -7.298689 0.7867126 0.3907997 0.477869
0.3973416 9.545988 -11.21215 -0.02873417 -0.4935989 0.8692148
-3.517462 6.808778 -11.57577 0.3627463 -0.2198778 0.9055765
4.687221 6.627665 -11.17899 -0.457722 -0.2017664 0.8658988
-6.527763 11.9807 -3.790003 0.6637763 -0.7370698 0.1270003
0.588064 7.568019 -12.06052 -0.0478064 -0.2958019 0.9540523
-0.8681041 13.39144 -7.202903 0.09781042 -0.8781443 0.4682903
9.231033 7.610457 -5.313566 -0.9121034 -0.3000456 0.2793566
-4.205739 6.260911 -11.38842 0.431574 -0.1650911 0.8868421
-0.9157438 7.394696 -12.06952 0.1025744 -0.2784696 0.9549519
-1.332143 13.94261 -5.80978 0.1442143 -0.9332607 0.328978
1.218454 13.65584 -6.636328 -0.1108454 -0.9045838 0.4116328
-4.260478 13.43167 -4.27418 0.4370478 -0.8821665 0.1754181
5.986318 2.296767 -10.27357 -0.5876318 0.2313233 0.775357
4.717345 10.14172 -9.460636 -0.4607345 -0.5531724 0.6940635
3.182463 0.333818 -11.02143 -0.3072464 0.4276183 0.8501425
6.759301 9.514561 -8.153124 -0.6649301 -0.490456 0.5633125
0.6002697 14.11634 -5.58418 -0.04902697 -0.9506336 0.3064179
7.040442 9.871876 -7.44764 -0.6930442 -0.5261875 0.492764
4.517592 12.34267 -7.078394 -0.4407593 -0.7732669 0.4558393
-6.725051 6.862041 -9.463369 0.6835052 -0.2252041 0.6943369
9.106435 7.065768 -6.130175 -0.8996435 -0.2455768 0.3610175
9.775847 7.083577 -3.192922 -0.9665847 -0.2473576 0.06729216
-5.617726 11.74633 -6.553112 0.5727727 -0.7136326 0.4033111
-6.298483 11.96076 -4.733075 0.6408484 -0.7350758 0.2213075
-3.641363 13.62913 -4.660717 0.3751363 -0.9019125 0.2140716
0.7181469 0.5657468 -11.64547 -0.0608147 0.4044254 0.9125468
-0.4521698 14.24062 -5.153452 0.05621698 -0.9630623 0.263345
-5.80079 11.1763 -7.204681 0.5910791 -0.6566302 0.4684681
5.421461 2.35753 -10.68791 -0.5311462 0.2252471 0.816791
-4.254064 13.54604 -3.569811 0.4364066 -0.8936042 0.104981
-7.321225 6.415981 -8.96324 0.7431226 -0.1805981 0.6443239
-2.978393 13.97311 -4.191504 0.3088392 -0.9363114 0.1671503
-2.97912 11.34299 -9.237451 0.308912 -0.6732994 0.6717449
1.218072 14.28543 -4.791189 -0.1108072 -0.9675426 0.227119
4.486421 7.538149 -11.02135 -0.437642 -0.2928149 0.8501346
2.509659 7.387661 -11.82195 -0.239966 -0.2777661 0.9301948
-1.986045 14.20786 -4.387534 0.2096046 -0.959786 0.1867534
4.580871 4.711679 -11.46433 -0.4470872 -0.01016789 0.8944326
-7.004393 -0.04055262 -7.788564 0.7114393 0.4650553 0.5268564
-0.8857988 9.273388 -11.30984 0.09957989 -0.4663388 0.8789835
-6.462563 7.413194 -9.515965 0.6572564 -0.2803194 0.6995964
-5.689378 12.32125 -5.147506 0.5799378 -0.7711254 0.2627506
0.1343973 14.25863 -5.147418 -0.002439727 -0.9648631 0.2627418
-3.049056 14.01729 -3.754193 0.3159057 -0.9407291 0.1234192
-1.722818 14.43324 -2.900597 0.1832818 -0.9823234 0.03805968
6.672734 4.070627 -10.04593 -0.6562734 0.05393734 0.7525928
4.824903 11.93679 -7.42794 -0.4714903 -0.7326788 0.490794
7.906493 7.606147 -8.01889 -0.7796493 -0.2996147 0.549889
-3.660712 12.72472 -6.984637 0.3770711 -0.8114725 0.4464637
5.699295 11.34376 -7.359035 -0.5589295 -0.673376 0.4839035
8.675761 7.833996 -6.549091 -0.8565762 -0.3223996 0.4029092
-9.013365 8.594846 -3.460865 0.9123364 -0.3984846 0.09408651
-4.079297 8.621551 -10.666 0.4189298 -0.4011551 0.8145996
-9.737458 5.156853 -4.171831 0.9847457 -0.0546853 0.1651831
3.197234 11.4932 -9.084335 -0.3087234 -0.6883204 0.6564335
-0.867763 7.447588 -12.05898 0.09777629 -0.2837588 0.9538977
-8.557106 -0.1624727 -3.970788 0.8667105 0.4772473 0.1450788
-0.7583194 0.172936 -11.43956 0.08683196 0.4437065 0.8919556
10.04531 4.883424 -3.622194 -0.9935312 -0.02734241 0.1102193
-5.405313 12.14975 -6.088409 0.5515313 -0.7539747 0.3568409
1.043542 3.982189 -12.45652 -0.0933542 0.06278113 0.9936516
-8.68596 3.014861 -7.001811 0.879596 0.159514 0.4481809
-4.194877 9.317884 -10.2209 0.4304877 -0.4707884 0.77009
3.153792 11.0897 -9.502035 -0.3043792 -0.6479701 0.6982035
2.987089 1.87297 -11.69775 -0.2877089 0.2737031 0.9177746
-8.546766 8.061916 -6.14556 0.8656766 -0.3451917 0.362556
-3.824009 3.624207 -11.66067 0.3934009 0.09857928 0.9140667
5.69762 11.93202 -6.414414 -0.558762 -0.7322025 0.3894414
2.607814 14.21495 -3.747153 -0.2497815 -0.9604948 0.1227153
9.474345 3.950833 -5.965945 -0.9364345 0.0659167 0.3445945
-3.911832 5.38859 -11.64243 0.4021832 -0.07785897 0.9122427
7.498507 11.348 -2.616629 -0.7388507 -0.6737999 0.009662836
8.381666 7.947185 -7.041365 -0.8271666 -0.3337184 0.4521365
-2.934214 13.81514 -4.969121 0.3044215 -0.9205138 0.2449122
-7.082406 5.304585 -9.432804 0.7192406 -0.06945854 0.6912804
-2.86956 13.44816 -6.126824 0.297956 -0.8838158 0.3606824
4.78912 13.35973 -3.764245 -0.4679119 -0.8749726 0.1244245
-8.532248 0.2353168 -5.00469 0.8642249 0.4374683 0.248469
0.1292807 13.02393 -7.924196 -0.001928066 -0.8413934 0.5404196
-2.75991 12.54197 -7.890984 0.286991 -0.793197 0.5370984
-8.304049 8.882427 -5.829101 0.8414049 -0.4272428 0.33091
6.144944 11.02491 -7.255856 -0.6034945 -0.6414915 0.4735855
0.6727287 14.23326 -5.180114 -0.05627291 -0.9623259 0.2660117
-3.171776 12.49907 -7.715426 0.3281776 -0.7889075 0.5195426
3.902897 13.50027 -5.084573 -0.3792897 -0.8890269 0.2564573
8.96433 6.274396 -6.859427 -0.885433 -0.1664396 0.4339427
9.066085 0.6694841 -4.584187 -0.8956085 0.3940516 0.2064187
-7.284255 10.6828 -5.426224 0.7394255 -0.6072797 0.2906224
-6.768394 11.19487 -5.574051 0.6878394 -0.6584867 0.3054049
2.225944 13.65974 -6.211211 -0.2115944 -0.9049737 0.3691211
0.350777 8.905093 -11.54741 -0.02407769 -0.4295093 0.9027414
1.123872 13.70335 -6.555229 -0.1013872 -0.9093348 0.4035228
-8.836471 7.105313 -6.22595 0.8946471 -0.2495313 0.370595
-0.614424 13.9115 -6.119631 0.07244241 -0.9301499 0.3599631
-5.74283 0.8701601 -9.714302 0.5852829 0.373984 0.7194302
7.320929 10.90071 -5.42335 -0.7210928 -0.6290713 0.290335
7.440514 11.41142 -2.58562 -0.7330513 -0.6801417 0.00656198
-2.781904 14.18256 -2.574664 0.2891906 -0.9572559 0.005466401
2.822228 14.2316 -2.782006 -0.2712227 -0.96216 0.02620056
6.834736 8.663031 -8.712809 -0.6724736 -0.405303 0.6192808
-5.633263 4.054089 -10.68737 0.5743265 0.05559116 0.8167366
1.325753 13.79209 -6.289772 -0.1215753 -0.918209 0.3769772
-1.656988 14.31074 -4.185348 0.1766988 -0.9700741 0.1665346
7.792809 8.156948 -7.848564 -0.768281 -0.3546948 0.5328565
1.734769 14.36292 -4.016855 -0.1624769 -0.9752925 0.1496856
-8.40092 5.307517 -7.723625 0.851092 -0.06975169 0.5203624
6.335664 11.34187 -6.510366 -0.6225664 -0.6731873 0.3990363
-1.705057 14.44389 -2.534353 0.1815058 -0.9833888 0.001435369
-3.078444 13.88641 -4.464736 0.3188443 -0.9276413 0.1944736
7.812086 10.40222 -5.189834 -0.7702087 -0.5792224 0.2669834
0.3823375 14.3327 -4.842714 -0.02723375 -0.9722697 0.2322714
0.1809627 12.17648 -9.057842 -0.007096264 -0.7566478 0.6537842
4.942303 0.9982324 -10.49521 -0.4832303 0.3611768 0.7975211
4.565805 13.19916 -5.044302 -0.4455806 -0.8589162 0.2524302
9.750478 3.248925 -4.802247 -0.9640478 0.1361075 0.2282247
-3.104301 6.378249 -11.82277 0.3214301 -0.1768249 0.9302772
-7.338208 10.57499 -5.510509 0.7448208 -0.5964986 0.2990509
5.541853 8.318592 -10.05268 -0.5431853 -0.3708593 0.7532683
-7.463063 7.555579 -8.348576 0.7573063 -0.2945578 0.5828575
9.239447 0.5813632 -3.170603 -0.9129447 0.4028637 0.06506026
-4.638595 10.34555 -9.194902 0.4748595 -0.5735549 0.6674902
1.629361 8.713757 -11.5117 -0.1519361 -0.4103757 0.8991703
-2.377157 8.734908 -11.28351 0.2487158 -0.4124909 0.8763514
7.582836 10.92076 -4.601122 -0.7472835 -0.6310757 0.2081123
1.163843 4.502388 -12.46373 -0.1053843 0.01076121 0.9943733
-7.043244 0.313314 -8.030861 0.7153245 0.4296686 0.5510861
0.6184251 7.096356 -12.19262 -0.05084252 -0.2486356 0.9672618
-2.860021 13.60032 -5.737626 0.2970021 -0.899032 0.3217625
4.311361 12.86933 -6.27926 -0.4201362 -0.8259329 0.375926
-4.157856 11.32209 -8.580799 0.4267856 -0.6712087 0.6060799
-4.738488 13.25785 -3.826449 0.4848488 -0.8647852 0.1306449
7.967161 10.44264 -4.580421 -0.7857161 -0.5832639 0.2060422
-9.086774 3.451008 -6.271812 0.9196774 0.1158992 0.3751811
6.772209 10.65839 -6.882559 -0.6662209 -0.6048394 0.4362557
9.317986 8.375556 -3.536646 -0.9207987 -0.3765556 0.1016644
8.824523 1.237842 -6.081689 -0.8714523 0.3372158 0.3561689
6.582712 0.5167499 -8.950342 -0.6472712 0.409325 0.6430343
-0.7016287 12.0023 -9.205439 0.08116288 -0.7392305 0.6685439
-5.113422 12.61253 -5.465394 0.5223423 -0.8002532 0.2945395
-3.913686 12.22025 -7.608627 0.4023685 -0.7610245 0.5088627
-1.299332 10.91592 -10.15211 0.1409332 -0.6305922 0.7632113
-7.135844 1.156047 -8.483889 0.7245844 0.3453952 0.5963888
7.980941 8.559179 -7.258384 -0.7870941 -0.3949179 0.4738383
-1.384503 6.741034 -12.17532 0.1494503 -0.2131034 0.9655318
7.531009 6.920525 -8.812067 -0.742101 -0.2310525 0.6292067
9.38625 5.063936 -6.227441 -0.9276251 -0.04539361 0.3707441
0.03696669 13.75238 -6.571113 0.007303332 -0.9142382 0.4051113
-2.145235 5.445686 -12.22647 0.2255235 -0.08356863 0.9706469
-3.346059 5.274199 -11.88026 0.3456059 -0.06641985 0.9360262
-5.393176 11.76375 -6.825684 0.5503176 -0.7153751 0.4305684
-6.787165 3.511509 -9.676985 0.6897165 0.1098491 0.7156985
-6.6742 11.19196 -5.78381 0.67842 -0.6581959 0.326381
-3.67982 13.51928 -5.022407 0.378982 -0.8909278 0.2502406
2.796574 13.92638 -4.966924 -0.2686574 -0.9316377 0.2446922
2.146516 11.7352 -9.234474 -0.2036516 -0.7125198 0.6714473
-9.459727 7.025824 -4.127521 0.9569727 -0.2415824 0.160752
-4.275087 8.719646 -10.51261 0.4385087 -0.4109645 0.7992611
5.092047 4.817828 -11.1881 -0.4982046 -0.02078275 0.8668104
6.45639 11.73187 -5.520373 -0.6346391 -0.7121874 0.3000374
-9.462394 6.541807 -4.673466 0.9572393 -0.1931807 0.2153465
-7.898394 1.906791 -7.863995 0.8008394 0.2703209 0.5343995
9.628969 3.966454 -5.515841 -0.951897 0.06435458 0.2995842
-7.102003 10.80269 -5.624447 0.7212004 -0.619269 0.3104447
8.183529 8.968449 -6.497694 -0.8073529 -0.4358448 0.3977695
-0.7509294 10.84381 -10.29164 0.08609293 -0.6233813 0.777164
0.5628423 1.249707 -11.92762 -0.04528423 0.3360293 0.9407623
-3.990872 13.48057 -4.640355 0.4100872 -0.8870566 0.2120354
-6.425729 2.466701 -9.778823 0.6535729 0.2143299 0.7258824
1.698277 14.12747 -5.145859 -0.1588277 -0.9517471 0.2625859
5.568338 10.60722 -8.371489 -0.5458338 -0.5997218 0.5851489
0.3884979 12.83941 -8.194443 -0.02784979 -0.8229406 0.5674443
-6.3363 12.0919 -4.090492 0.6446301 -0.7481896 0.1570492
7.139535 -0.3887391 -7.579471 -0.7029536 0.4998739 0.505947
9.869012 3.402927 -4.337873 -0.9759012 0.1207073 0.1817873
-5.500595 5.549023 -10.74432 0.5610595 -0.09390229 0.8224321
6.544818 11.43737 -5.981225 -0.6434819 -0.6827374 0.3461225
8.664462 3.601186 -7.599711 -0.8554462 0.1008814 0.507971
-9.634396 6.498787 -3.73624 0.9744396 -0.1888787 0.1216239
3.715797 13.42311 -5.57408 -0.3605797 -0.8813105 0.305408
-6.17757 2.342075 -9.957943 0.628757 0.2267925 0.7437942
9.50096 3.845336 -5.870395 -0.939096 0.07646639 0.3350395
1.727966 14.17267 -4.956691 -0.1617967 -0.9562674 0.2436692
-9.558985 5.064165 -5.03087 0.9668984 -0.0454165 0.251087
-4.962875 5.540194 -11.08742 0.5072877 -0.0930194 0.8567419
-7.924062 2.802374 -8.1933 0.8034063 0.1807626 0.5673299
-2.87905 14.1132 -3.388805 0.298905 -0.9503197 0.08688053
7.442927 11.35482 -3.377686 -0.7332927 -0.6744817 0.08576848
-4.474135 9.938061 -9.63319 0.4584136 -0.5328061 0.711319
-4.725058 12.6291 -6.029448 0.4835057 -0.8019102 0.3509448
-3.889583 13.57678 -4.417433 0.3999583 -0.8966777 0.1897432
-5.273781 12.98801 -3.427693 0.5383782 -0.8378006 0.09076925
5.444233 6.158557 -10.83552 -0.5334234 -0.1548558 0.8315523
-8.584454 2.052489 -6.746773 0.8694453 0.2557511 0.4226775
-6.661012 9.309229 -8.183096 0.6771012 -0.4699228 0.5663095
-1.685751 1.297997 -11.78315 0.1795751 0.3312003 0.9263148
6.312672 11.47459 -6.315303 -0.6202672 -0.6864586 0.3795304
-8.563804 2.305936 -6.930945 0.8673803 0.2304064 0.4410945
-1.767355 5.901362 -12.25694 0.1877355 -0.1291362 0.9736936
-2.038009 10.76151 -10.10584 0.214801 -0.6151513 0.7585838
-1.369636 5.436132 -12.37536 0.1479636 -0.08261317 0.9855363
-4.731826 1.512189 -10.70293 0.4841827 0.3097811 0.8182926
9.080831 8.983696 -3.148475 -0.8970831 -0.4373696 0.0628475
-9.656276 5.567664 -4.444246 0.9766276 -0.0957664 0.1924247
3.807508 7.274524 -11.42105 -0.3697508 -0.2664524 0.8901053
-9.213683 1.999385 -5.02073 0.9323682 0.2610615 0.250073
7.51488 11.02331 -4.529279 -0.740488 -0.6413311 0.2009279
-1.336537 11.82745 -9.288744 0.1446537 -0.7217453 0.6768744
8.459652 9.775573 -4.417413 -0.8349652 -0.5165572 0.1897413
2.436548 14.09777 -4.657631 -0.2326548 -0.9487766 0.213763
-1.655748 12.86139 -7.886256 0.1765748 -0.8251389 0.5366256
-2.2207 14.14798 -4.415994 0.23307 -0.9537979 0.1895993
0.04775845 0.6148467 -11.68705 0.006224155 0.3995153 0.9167054
-0.6346906 13.18819 -7.605277 0.07446906 -0.8578194 0.5085276
-4.685199 12.73181 -5.842995 0.4795199 -0.8121809 0.3322994
-8.755895 0.2272797 -3.999081 0.8865894 0.438272 0.1479082
0.3765602 13.77357 -6.514734 -0.02665602 -0.9163572 0.3994735
-6.007591 11.29057 -6.756162 0.6117591 -0.668057 0.4236161
3.215074 13.43351 -6.05612 -0.3105075 -0.8823512 0.3536121
1.242224 14.2064 -5.094347 -0.1132224 -0.9596395 0.2574346
-2.185342 13.16874 -7.154582 0.2295342 -0.8558741 0.4634583
5.947109 0.4489765 -9.492377 -0.5837109 0.4161023 0.6972377
9.552271 1.317061 -2.527755 -0.9442272 0.3292939 0.0007755123
4.255512 12.48709 -7.076993 -0.4145512 -0.7877089 0.4556994
7.686045 0.7428808 -7.778226 -0.7576044 0.3867119 0.5258226
-3.013665 2.229295 -11.71646 0.3123665 0.2380705 0.9196464
-2.381141 12.80263 -7.684788 0.2491141 -0.819263 0.5164788
2.876619 6.856989 -11.86328 -0.2766619 -0.2246989 0.9343279
9.651432 4.143659 -5.476956 -0.9541432 0.04663415 0.2956955
-0.5052744 14.24759 -5.115829 0.06152745 -0.9637588 0.2595831
-6.357547 12.01142 -4.361159 0.6467548 -0.7401416 0.1841159
-2.576977 14.23103 -2.984729 0.2686978 -0.9621028 0.04647282
-1.55896 14.31376 -4.266863 0.1668961 -0.9703764 0.1746863
-7.230221 11.38964 -2.91709 0.7340221 -0.6779637 0.03970879
-1.240568 13.183 -7.487864 0.1350569 -0.8572999 0.4967864
-9.077379 0.9125164 -3.905886 0.9187379 0.3697484 0.1385886
9.347323 2.920643 -5.957719 -0.9237325 0.1689357 0.343772
0.6281202 0.7301941 -11.7221 -0.05181202 0.3879806 0.9202101
4.867127 6.753074 -11.05094 -0.4757127 -0.2143073 0.8530942
-9.385286 5.160569 -5.608113 0.9495285 -0.0550569 0.3088111
-2.518032 13.8115 -5.422737 0.2628032 -0.9201497 0.2902737
0.04611991 14.26781 -5.112785 0.00638801 -0.9657815 0.2592785
1.095595 3.319721 -12.38731 -0.09855952 0.1290279 0.9867309
1.428427 6.510527 -12.24881 -0.1318427 -0.1900527 0.972881
0.9857178 13.96685 -5.937971 -0.08757175 -0.9356847 0.3417971
-5.859782 9.552168 -8.839547 0.5969782 -0.4942168 0.6319548
-4.20847 9.269684 -10.24257 0.4318471 -0.4659684 0.7722574
2.169388 14.25326 -4.183282 -0.2059388 -0.9643258 0.166328
-1.592653 14.35867 -3.95683 0.1702652 -0.9748667 0.1436828
-8.687497 9.36237 -2.657868 0.8797497 -0.475237 0.01378681
-2.049845 13.6755 -6.146527 0.2159845 -0.9065504 0.3626528
-5.649809 11.15106 -7.422967 0.575981 -0.6541063 0.4902967
3.680572 3.118479 -11.74098 -0.3570572 0.1491521 0.9220975
2.742521 11.18047 -9.583906 -0.2632522 -0.657047 0.7063905
-8.680531 2.219133 -6.644359 0.879053 0.2390867 0.4124359
3.085902 5.36283 -12.03721 -0.2975902 -0.07528294 0.9517208
-2.635626 11.64201 -9.078384 0.2745626 -0.7032008 0.6558385
-2.015719 12.81192 -7.831291 0.2125719 -0.8201921 0.5311291
-6.570895 11.89182 -4.04993 0.6680896 -0.7281824 0.1529929
2.155474 14.39431 -2.808603 -0.2045474 -0.9784311 0.02886021
4.558992 7.478559 -11.00397 -0.4448992 -0.2868559 0.8483976
-1.673691 1.598477 -11.88745 0.1783691 0.3011524 0.9367453
-1.115585 0.8349771 -11.69862 0.1225586 0.3775024 0.9178624
3.112463 12.84582 -7.332117 -0.3002463 -0.8235821 0.4812117
1.614928 14.30984 -4.430039 -0.1504928 -0.9699842 0.1910039
-1.205579 12.83411 -8.05473 0.1315579 -0.8224112 0.553473
-9.519674 6.942904 -3.871644 0.9629675 -0.2332904 0.1351642
2.42256 14.31961 -3.132855 -0.231256 -0.9709607 0.06128547
2.120491 13.56248 -6.496309 -0.2010491 -0.8952479 0.3976308
-8.205733 -0.3508172 -5.017774 0.8315733 0.4960817 0.2497773
-9.757288 5.9732 -3.402225 0.9867288 -0.13632 0.08822247
-7.744966 9.06813 -6.812386 0.7854967 -0.4458131 0.4292386
-0.7904147 14.37148 -4.495553 0.09004147 -0.9761478 0.1975553
-8.226659 -0.09643888 -5.409562 0.8336658 0.4706439 0.2889561
-0.7893351 10.29043 -10.70071 0.08993351 -0.5680428 0.8180705
-7.279498 9.555874 -7.095332 0.7389498 -0.4945874 0.4575331
3.11195 -0.04035807 -10.84841 -0.300195 0.4650359 0.8328413
-6.268812 2.351893 -9.88286 0.6378812 0.2258107 0.736286
8.585908 4.0723 -7.79919 -0.847591 0.05377002 0.5279189
-6.740758 11.81984 -3.561795 0.6850759 -0.7209838 0.1041795
-8.451484 9.56897 -3.972451 0.8561484 -0.495897 0.1452451
-3.609815 13.25662 -5.896223 0.3719815 -0.8646623 0.3376224
-7.708108 4.061741 -8.731005 0.7818109 0.05482589 0.6211005
1.087856 13.66494 -6.649391 -0.0977856 -0.9054939 0.4129391
-5.766344 8.219419 -9.761593 0.5876346 -0.3609419 0.7241592
0.7895405 14.42905 -4.287638 -0.06795407 -0.9819047 0.1767639
-1.102772 13.87864 -6.07266 0.1212773 -0.9268645 0.3552662
-0.03183322 2.966505 -12.383 0.01418332 0.1643496 0.9863002
9.569753 6.974017 -4.73912 -0.9459753 -0.2364017 0.221912
9.188073 1.425134 -5.248592 -0.9078074 0.3184866 0.2728592
-7.749561 10.63482 -3.908843 0.7859561 -0.6024817 0.1388844
4.857186 11.46528 -8.039906 -0.4747187 -0.6855281 0.5519905
0.7395941 3.242957 -12.40609 -0.06295941 0.1367043 0.9886091
7.212952 9.714554 -7.366814 -0.7102952 -0.5104554 0.4846814
-8.154281 5.297688 -8.108271 0.8264279 -0.06876873 0.5588271
1.71054 9.144896 -11.28773 -0.160054 -0.4534896 0.8767725
-4.922199 11.61712 -7.577395 0.5032199 -0.700712 0.5057394
3.313806 9.071182 -10.87664 -0.3203807 -0.4461183 0.8356643
8.698153 4.700743 -7.642051 -0.8588153 -0.00907426 0.5122051
1.070406 1.228438 -11.88177 -0.09604061 0.3381561 0.9361766
2.728177 13.94071 -4.986362 -0.2618177 -0.9330713 0.2466362
6.686175 9.422438 -8.316067 -0.6576174 -0.4812437 0.5796066
0.2812845 1.082674 -11.87567 -0.01712845 0.3527327 0.9355674
9.807643 2.19938 -2.900302 -0.9697643 0.2410619 0.03803019
-9.503884 2.729806 -4.529506 0.9613884 0.1880194 0.2009506
-6.743612 7.554079 -9.180361 0.6853611 -0.2944079 0.6660361
-6.153313 7.324293 -9.827772 0.6263313 -0.2714292 0.7307772
-0.8107013 14.22299 -5.116678 0.09207014 -0.9612989 0.2596678
-6.200871 11.62087 -5.839731 0.6310871 -0.7010871 0.331973
6.760337 10.95239 -6.462988 -0.6650337 -0.6342387 0.3942987
2.759249 12.39754 -8.206446 -0.2649249 -0.7787543 0.5686446
-4.312796 8.298698 -10.69511 0.4422797 -0.3688699 0.8175107
9.652514 2.424357 -4.560439 -0.9542514 0.2185643 0.2040438
0.08030708 13.11532 -7.779142 0.002969292 -0.8505324 0.5259143
-1.632273 14.45563 -2.687806 0.1742272 -0.9845625 0.01678043
2.331172 7.633067 -11.78971 -0.2221171 -0.3023068 0.9269707
-8.656627 4.379792 -7.325545 0.8766626 0.02302084 0.4805544
0.4615263 0.8272772 -11.77027 -0.03515263 0.3782723 0.9250267
-2.379164 13.28897 -6.818783 0.2489163 -0.8678972 0.4298782
-4.383436 13.33226 -4.451616 0.4493436 -0.8722264 0.1931616
-8.388499 1.986717 -7.090985 0.8498499 0.2623284 0.4570985
3.785513 12.55489 -7.354177 -0.3675514 -0.7944894 0.4834177
-8.609735 8.43071 -5.580788 0.8719735 -0.3820709 0.3060787
-7.451283 5.389341 -9.017664 0.7561283 -0.07793413 0.6497663
8.455215 9.439657 -5.171751 -0.8345216 -0.4829658 0.2651751
-4.929183 12.9804 -4.65146 0.5039182 -0.8370396 0.2131459
-6.443396 8.653421 -8.89995 0.6553396 -0.4043421 0.6379949
5.293197 1.416975 -10.45341 -0.5183197 0.3193025 0.7933415
-9.488768 4.161864 -5.288183 0.9598768 0.04481358 0.2768182
-1.415948 14.40851 -3.8087 0.1525948 -0.9798506 0.1288699
-4.508521 12.44643 -6.674479 0.4618521 -0.7836426 0.4154477
9.00749 0.1290855 -3.38952 -0.8897491 0.4480914 0.08695184
-2.067746 10.15981 -10.54852 0.2177746 -0.5549805 0.8028517
-9.264976 1.452641 -3.98319 0.9374975 0.3157358 0.146319
2.209496 7.984186 -11.69644 -0.2099497 -0.3374186 0.9176436
-8.346441 5.543965 -7.775122 0.8456442 -0.09339648 0.5255122
-2.207603 13.36244 -6.765406 0.2317604 -0.8752442 0.4245406
-1.311717 14.45154 -3.579655 0.1421717 -0.9841537 0.1059653
-3.840674 13.6989 -3.855664 0.3950674 -0.9088904 0.1335664
-9.599821 5.051721 -4.870376 0.9709821 -0.04417205 0.2350376
9.818313 6.806063 -3.482269 -0.9708313 -0.2196063 0.09622693
8.700463 6.732386 -7.178263 -0.8590463 -0.2122386 0.4658263
2.620462 10.56409 -10.15193 -0.2510462 -0.5954089 0.7631933
7.204041 11.60769 -3.360795 -0.709404 -0.699769 0.08407947
1.902449 13.47788 -6.780024 -0.1792449 -0.8867882 0.4260024
6.436184 12.34751 -2.852183 -0.6326185 -0.7737509 0.0332182
-3.977513 7.60756 -11.14014 0.4087513 -0.299756 0.8620144
-1.099204 1.776611 -12.03366 0.1209204 0.2833389 0.951366
-9.011876 3.224648 -6.376448 0.9121876 0.1385352 0.3856446
9.415567 1.021348 -3.246626 -0.9305568 0.3588653 0.07266261
-9.342424 1.945718 -4.405014 0.9452424 0.2664282 0.1885012
6.583225 12.10592 -3.901523 -0.6473225 -0.7495916 0.1381524
-5.403171 12.36942 -5.585357 0.5513172 -0.7759416 0.3065356
-3.270333 13.68906 -4.998726 0.3380333 -0.9079057 0.2478726
1.85942 14.41959 -3.363523 -0.174942 -0.9809588 0.08435217
-3.313766 1.04252 -11.212 0.3423766 0.356748 0.8692003
4.096016 13.73361 -3.453522 -0.3986017 -0.9123607 0.09335224
-0.2623004 14.186 -5.376858 0.03723005 -0.9575999 0.2856858
-2.786311 2.521826 -11.86082 0.2896312 0.2088175 0.9340819
3.888909 12.86728 -6.707744 -0.377891 -0.8257278 0.4187745
5.864538 11.66587 -6.655216 -0.5754538 -0.7055869 0.4135214
8.911271 0.6079559 -5.073672 -0.8801273 0.4002045 0.2553671
-6.499979 11.86922 -4.420513 0.6609979 -0.7259217 0.1900512
-0.5713202 14.44346 -4.204885 0.06813204 -0.9833462 0.1684885
2.655858 8.529389 -11.36065 -0.2545858 -0.3919389 0.8840644
0.6087045 13.86363 -6.27787 -0.04987045 -0.9253632 0.375787
-6.460467 11.4844 -5.613794 0.6570467 -0.6874403 0.3093793
-0.8257038 13.86513 -6.189757 0.0935704 -0.9255124 0.3669758
5.345907 0.04515696 -9.713573 -0.5235907 0.4564843 0.7193573
-2.506557 13.91623 -5.078854 0.2616557 -0.9306229 0.2558854
3.944301 13.4806 -5.091088 -0.3834301 -0.8870605 0.257109
-3.797025 12.74875 -6.820695 0.3907024 -0.8138747 0.4300694
-1.01861 13.16785 -7.568705 0.112861 -0.8557852 0.5048704
-2.480032 14.03996 -4.609883 0.2590032 -0.9429959 0.2089883
4.072402 11.42112 -8.67695 -0.3962402 -0.6811119 0.6156949
-7.761311 9.962764 -5.584375 0.787131 -0.5352764 0.3064374
-3.018037 4.088467 -12.00385 0.3128037 0.05215335 0.9483849
-3.489692 1.573004 -11.3415 0.3599693 0.3036996 0.8821501
-6.508251 8.817239 -8.724667 0.6618252 -0.4207239 0.6204667
8.717608 6.92111 -7.055176 -0.8607609 -0.2311109 0.4535176
8.090179 7.739598 -7.669986 -0.798018 -0.3129598 0.5149986
9.060389 3.515206 -6.84342 -0.895039 0.1094794 0.4323419
8.611453 5.930943 -7.617097 -0.8501454 -0.1320944 0.5097097
-6.662225 3.678481 -9.818579 0.6772224 0.09315191 0.7298579
-8.475308 4.469864 -7.645706 0.8585308 0.01401358 0.5125706
2.22419 14.38076 -2.769779 -0.211419 -0.9770763 0.02497777
-3.892565 13.64995 -4.022898 0.4002566 -0.9039953 0.1502899
-3.590346 13.89928 -2.649546 0.3700347 -0.9289276 0.0129545
-0.5401437 5.73425 -12.43531 0.06501439 -0.112425 0.991531
6.350667 10.69015 -7.427734 -0.6240667 -0.608015 0.4907734
-4.159349 12.50514 -6.929015 0.426935 -0.7895141 0.4409014
-5.871274 12.24185 -4.965253 0.5981275 -0.7631848 0.2445253
-3.309189 13.08307 -6.584028 0.3419188 -0.8473065 0.4064027
5.565057 10.18713 -8.776035 -0.5455057 -0.557713 0.6256035
-3.182819 4.327557 -11.95809 0.329282 0.02824436 0.9438091
-2.856447 14.00444 -4.236 0.2966446 -0.9394442 0.1715999
-0.2885441 14.32902 -4.839886 0.03985441 -0.9719017 0.2319886
9.147459 8.517025 -4.269139 -0.9037459 -0.3907025 0.1749141
4.056257 11.23398 -8.887888 -0.3946257 -0.6623976 0.6367888
-1.98359 13.93657 -5.458013 0.209359 -0.9326573 0.2938014
3.551346 13.48295 -5.590487 -0.3441346 -0.887295 0.3070487
5.924376 12.27577 -5.245622 -0.5814376 -0.7665769 0.2725622
-0.5092679 11.63852 -9.606352 0.06192679 -0.7028524 0.7086351
5.146913 10.99779 -8.335979 -0.5036914 -0.6387793 0.5815979
0.6440533 13.58712 -6.893343 -0.05340535 -0.8977118 0.4373345
-1.757044 12.88848 -7.809705 0.1867044 -0.8278476 0.5289704
7.336883 1.116055 -8.483599 -0.7226883 0.3493945 0.5963599
8.528251 7.131006 -7.292587 -0.8418251 -0.2521006 0.4772587
-5.367724 11.89991 -6.62509 0.5477724 -0.7289909 0.410509
9.146627 7.706486 -5.478231 -0.9036628 -0.3096486 0.2958231
3.984554 13.73827 -3.809382 -0.3874553 -0.9128271 0.1289381
-2.390565 14.29135 -2.65676 0.2500564 -0.9681346 0.01367596
5.28023 12.78071 -5.071115 -0.5170231 -0.8170712 0.2551115
-7.655043 0.5612073 -7.348187 0.7765043 0.4048793 0.4828187
4.449918 13.26039 -5.037109 -0.4339918 -0.8650392 0.251711
-9.704484 5.589286 -4.168302 0.9814484 -0.09792858 0.1648304
-5.421504 8.830591 -9.702555 0.5531504 -0.4220591 0.7182554
2.258074 10.98538 -9.918673 -0.2148073 -0.6375378 0.7398672
0.5514814 4.531251 -12.50994 -0.04414815 0.007874873 0.9989939
5.568642 12.87438 -3.899603 -0.5458642 -0.8264377 0.1379603
-7.832599 0.1303964 -6.624667 0.7942599 0.4479603 0.4104666
-4.873586 13.2729 -2.863644 0.4983587 -0.8662896 0.03436434
-2.310762 12.91222 -7.541267 0.2420762 -0.8302215 0.5021269
7.199197 7.011295 -9.151522 -0.7089196 -0.2401294 0.6631522
0.208596 13.57804 -6.943177 -0.009859601 -0.8968043 0.4423177
6.265956 7.463974 -9.865683 -0.6155956 -0.2853974 0.7345682
-2.173129 13.55816 -6.356369 0.2283129 -0.8948161 0.383637
-5.68401 11.05391 -7.510539 0.579401 -0.6443909 0.4990539
9.322936 8.4978 -2.602599 -0.9212936 -0.3887799 0.008259904
10.04237 5.072633 -3.584937 -0.9932365 -0.04626331 0.1064937
-8.250543 0.6640263 -6.331903 0.8360544 0.3945975 0.3811902
-1.269287 13.51391 -6.857958 0.1379287 -0.8903914 0.4337958
-4.26138 13.10077 -5.486121 0.437138 -0.849077 0.296612
-8.313001 1.141394 -6.645754 0.8423 0.3468607 0.4125752
0.6969493 4.023592 -12.48552 -0.05869494 0.05864087 0.9965521
-3.385163 12.97586 -6.738561 0.3495163 -0.8365858 0.4218562
0.7002177 14.33036 -4.792927 -0.05902178 -0.9720362 0.2272927
-1.630237 8.189677 -11.69374 0.1740237 -0.3579677 0.9173739
8.656587 9.447641 -4.404963 -0.8546587 -0.4837641 0.1884963
-3.741209 8.840958 -10.72166 0.3851208 -0.4230958 0.8201658
9.036891 4.515096 -7.02573 -0.8926891 0.009490396 0.4505729
8.258963 8.755777 -6.570547 -0.8148963 -0.4145777 0.4050546
-8.71049 2.681261 -6.818713 0.882049 0.192874 0.429871
8.767285 6.759453 -7.040095 -0.8657286 -0.2149453 0.4520095
9.894584 4.603656 -4.584429 -0.9784585 0.0006343842 0.2064429
-0.2692177 14.13573 -5.539383 0.03792179 -0.9525729 0.3019384
-0.2791158 14.33964 -4.796534 0.03891163 -0.9729644 0.2276535
-5.689888 9.434536 -9.083929 0.5799888 -0.4824536 0.6563929
8.336392 10.02187 -4.263022 -0.8226393 -0.541187 0.1743022
10.06273 4.087233 -3.33841 -0.9952734 0.05227675 0.08184079
4.259552 12.7649 -6.554712 -0.4149551 -0.8154895 0.4034712
2.225199 11.54795 -9.404093 -0.2115199 -0.6937956 0.6884091
-0.7477191 14.15896 -5.362832 0.08577191 -0.954896 0.2842832
1.07135 14.28963 -4.839623 -0.09613498 -0.9679626 0.2319622
0.707377 14.40244 -4.456806 -0.05973768 -0.9792442 0.1936806
6.508223 11.99656 -4.641664 -0.6398224 -0.7386561 0.2121665
-1.53701 10.88006 -10.13405 0.164701 -0.6270061 0.7614046
-6.687522 6.543822 -9.594887 0.6797522 -0.1933822 0.7074887
-5.89817 8.20684 -9.658953 0.600817 -0.359684 0.7138953
-9.078724 1.527498 -4.982833 0.9188723 0.3082502 0.2462833
8.620473 9.632902 -4.050461 -0.8510472 -0.5022902 0.1530463
7.317196 11.3174 -4.271318 -0.7207196 -0.67074 0.1751318
0.1677677 14.42866 -4.414901 -0.005776768 -0.9818656 0.1894899
-6.859424 11.19516 -5.35952 0.6969424 -0.6585155 0.2839519
-0.06487048 14.05502 -5.800394 0.01748705 -0.9445022 0.3280393
-1.809883 10.82301 -10.11688 0.1919883 -0.6213006 0.7596881
-6.083656 12.00899 -5.145558 0.6193657 -0.7398991 0.2625558
8.951281 5.94633 -6.997273 -0.8841281 -0.133633 0.4477274
5.905982 12.39545 -4.92693 -0.5795981 -0.7785454 0.2406931
-9.71001 4.408373 -4.397964 0.982001 0.02016273 0.1877965
-3.546566 12.75068 -7.032085 0.3656565 -0.8140677 0.4512086
-0.5299709 14.05718 -5.735773 0.06399709 -0.9447182 0.3215771
-0.2586478 0.6704097 -11.70388 0.03686478 0.393959 0.9183884
-9.642839 6.53299 -3.608234 0.9752839 -0.192299 0.1088233
6.508315 10.21803 -7.774672 -0.6398315 -0.5608029 0.5254673
-9.477831 1.885746 -3.327429 0.9587831 0.2724254 0.08074269
9.701828 1.962052 -3.512576 -0.9591827 0.2647948 0.09925761
4.022184 13.13047 -5.997993 -0.3912184 -0.8520467 0.3477994
1.782242 14.42389 -3.464017 -0.1672242 -0.981389 0.09440175
5.238784 13.19312 -2.680071 -0.5128784 -0.8583121 0.01600695
-8.714106 9.09317 -3.947012 0.8824105 -0.448317 0.1427012
-9.622005 6.909547 -2.533116 0.9732004 -0.2299547 0.001311457
7.870927 8.697109 -7.322452 -0.7760927 -0.4087109 0.4802453
-9.578379 4.954855 -4.972834 0.9688379 -0.03448553 0.2452834
1.572846 5.231672 -12.39287 -0.1462846 -0.06216722 0.9872872
8.584727 9.901937 -2.937588 -0.8474728 -0.5291938 0.04175883
-4.778678 12.25196 -6.72729 0.4888679 -0.7641959 0.4207288
2.461848 1.461361 -11.71537 -0.2351848 0.3148639 0.9195373
-8.805959 5.133376 -7.017974 0.8915958 -0.05233761 0.4497974
2.519469 8.004072 -11.61256 -0.240947 -0.3394072 0.9092565
-3.222276 5.495811 -11.90676 0.3332276 -0.08858109 0.9386761
6.786738 0.8376963 -8.938013 -0.6676739 0.3772304 0.6418013
-6.834835 11.76776 -3.251978 0.6944835 -0.7157756 0.07319787
-1.857089 13.87604 -5.724863 0.1967089 -0.9266035 0.3204863
-1.778019 1.340618 -11.77994 0.1888019 0.3269382 0.9259942
-1.091891 9.493729 -11.16319 0.1201891 -0.4883729 0.8643185
-0.6976853 7.667686 -12.00674 0.08076853 -0.3057687 0.9486738
3.603949 9.593116 -10.45479 -0.3493949 -0.4983115 0.7934789
-7.216673 11.34222 -3.518561 0.7326673 -0.6732216 0.09985597
-7.748137 4.10446 -8.683936 0.7858137 0.05055404 0.6163936
-4.354609 8.418755 -10.61695 0.4464609 -0.3808755 0.8096953
-7.968938 1.816403 -7.709081 0.8078939 0.2793597 0.5189081
6.754964 2.436584 -9.669875 -0.6644965 0.2173416 0.7149875
-3.133107 13.43691 -5.921152 0.3243107 -0.8826914 0.3401152
-7.88225 10.55817 -3.382069 0.799225 -0.5948174 0.08620692
-6.456073 4.095205 -10.04474 0.6566073 0.05147952 0.7524738
-9.01629 7.26952 -5.62448 0.9126289 -0.265952 0.310448
-4.171199 13.57413 -3.667005 0.42812 -0.8964134 0.1147005
-7.715541 10.83556 -2.57694 0.7825541 -0.6225564 0.005693949
-3.539913 13.05418 -6.440972 0.3649913 -0.8444176 0.3920973
-1.561969 11.71164 -9.358948 0.1671969 -0.7101641 0.6838948
5.876079 12.44174 -4.847281 -0.5766079 -0.7831736 0.2327283
4.482784 11.66566 -8.096413 -0.4372784 -0.7055664 0.5576411
-4.757796 5.420156 -11.2176 0.4867797 -0.08101559 0.8697597
-3.377192 5.443544 -11.85513 0.3487191 -0.08335443 0.9335133
-8.916839 0.3173537 -2.818927 0.9026839 0.4292647 0.02989274
5.780548 0.7923477 -9.818659 -0.5670548 0.3817652 0.7298658
0.3860629 14.10251 -5.65305 -0.02760629 -0.9492512 0.313305
1.400312 14.26219 -4.793842 -0.1290312 -0.9652188 0.2273842
2.867635 11.71362 -8.995655 -0.2757635 -0.7103616 0.6475654
5.393322 2.500402 -10.74412 -0.5283322 0.2109598 0.8224117
9.313493 0.7148006 -2.870886 -0.9203494 0.38952 0.03508862
4.159138 13.65353 -3.868738 -0.4049138 -0.9043528 0.1348737
-3.203477 14.04509 -2.520991 0.3313476 -0.9435087 9.90331E-05
-3.739311 9.946483 -10.05026 0.3849311 -0.5336483 0.7530256
2.795164 6.331412 -11.99769 -0.2685165 -0.1721413 0.9477691
-8.720292 -0.05421019 -3.040662 0.8830292 0.4664211 0.05206624
9.271401 8.287449 -4.115335 -0.9161402 -0.3677449 0.1595336
-6.166389 7.182554 -9.867715 0.6276389 -0.2572554 0.7347715
-5.897545 12.60397 -2.596945 0.6007545 -0.7993966 0.007694542
6.574837 1.204688 -9.347132 -0.6464838 0.3405312 0.6827132
-9.371955 5.909868 -5.418774 0.9481954 -0.1299868 0.2898773
-4.766253 13.21882 -3.972691 0.4876254 -0.8608823 0.1452691
4.659647 10.98502 -8.737703 -0.4549648 -0.637502 0.6217703
3.156987 13.80161 -5.016041 -0.3046987 -0.9191607 0.2496041
-1.826262 12.66163 -8.125552 0.1936261 -0.8051626 0.5605552
-4.968204 11.22817 -8.034674 0.5078205 -0.6618174 0.5514672
8.767876 9.472303 -3.702882 -0.8657875 -0.4862303 0.1182882
-1.71779 14.43423 -2.899134 0.182779 -0.9824227 0.03791347
1.30826 4.468542 -12.44694 -0.119826 0.01414585 0.9926941
1.733531 0.4693174 -11.4765 -0.1623531 0.4140683 0.89565
3.70587 1.062119 -11.15031 -0.359587 0.3547881 0.863031
-2.29478 12.01484 -8.79578 0.240478 -0.7404837 0.6275781
0.1582558 6.745097 -12.28929 -0.004825579 -0.2135097 0.976929
-9.474543 7.31079 -3.437763 0.9584543 -0.270079 0.09177618
-6.561848 10.46131 -7.129617 0.6671849 -0.5851315 0.4609616
-2.741335 8.178051 -11.416 0.2851335 -0.3568051 0.8896005
5.258593 3.475463 -11.01734 -0.5148594 0.1134537 0.8497341
-4.057438 7.480289 -11.14519 0.4167439 -0.2870289 0.8625189
-3.429076 13.38078 -5.767833 0.3539076 -0.8770777 0.3247832
7.789917 2.920898 -8.697847 -0.7679917 0.1689102 0.6177848
-7.562366 2.726895 -8.650963 0.7672366 0.1883105 0.6130963
-1.844271 14.41667 -2.620495 0.1954271 -0.9806668 0.01004937
-7.618309 3.376255 -8.74504 0.7728308 0.1233745 0.6225041
1.941725 9.587938 -10.99732 -0.1831725 -0.4977938 0.8477318
5.292611 5.71504 -11.00053 -0.5182611 -0.110504 0.8480532
2.361713 14.3207 -3.315064 -0.2251713 -0.9710699 0.07950628
-3.88391 8.436274 -10.85117 0.399391 -0.3826274 0.8331165
-3.839943 -0.344152 -10.25656 0.3949942 0.4954152 0.7736558
-7.745258 10.7422 -3.351268 0.7855258 -0.6132203 0.08312687
-2.651278 6.027295 -12.02614 0.2761277 -0.1417295 0.9506136
7.400049 9.84176 -6.934054 -0.729005 -0.523176 0.4414054
1.558077 0.4937401 -11.51775 -0.1448077 0.4116261 0.8997748
3.271239 13.868 -4.592685 -0.3161238 -0.9258 0.2072685
6.662052 0.3309612 -8.745789 -0.6552052 0.4279039 0.6225788
5.069774 8.122897 -10.46105 -0.4959775 -0.3512897 0.7941045
1.824898 12.0049 -9.029581 -0.1714898 -0.7394897 0.6509579
6.74113 9.479877 -8.2044 -0.6631131 -0.4869878 0.56844
9.567214 7.604621 -3.782272 -0.9457215 -0.2994621 0.1262272
8.751885 1.565553 -6.526141 -0.8641886 0.3044447 0.400614
9.467122 1.292595 -3.719615 -0.9357123 0.3317405 0.1199613
5.057173 2.492757 -10.94869 -0.4947173 0.2117244 0.8428687
4.747799 7.475748 -10.90322 -0.46378 -0.2865748 0.8383216
-7.857177 1.075922 -7.422487 0.7967178 0.3534078 0.4902487
4.419885 0.59409 -10.60068 -0.4309886 0.4015911 0.8080677
0.885097 2.165052 -12.18548 -0.07750969 0.2444948 0.9665477
3.59932 11.9118 -8.394385 -0.348932 -0.7301797 0.5874385
-3.826921 13.74322 -3.561617 0.3936921 -0.9133219 0.1041615
4.005655 7.501059 -11.26446 -0.3895656 -0.289106 0.8744464
2.46107 0.344852 -11.2539 -0.235107 0.4265148 0.8733898
-9.186877 4.174647 -6.177668 0.9296877 0.04353533 0.3657667
0.7491333 13.91675 -6.122211 -0.06391333 -0.9306749 0.3602212
-0.831838 14.10124 -5.524885 0.09418385 -0.9491238 0.3004886
-4.517884 7.607018 -10.8627 0.4627885 -0.2997018 0.8342696
7.87781 10.73386 -3.989522 -0.776781 -0.6123858 0.1469522
-0.9592744 11.93681 -9.2412 0.1069274 -0.7326809 0.67212
-8.553484 9.307806 -4.215486 0.8663484 -0.4697806 0.1695485
0.78636 14.33858 -4.732985 -0.06763599 -0.9728578 0.2212984
-1.053238 14.12247 -5.376531 0.1163238 -0.9512471 0.2856531
-1.050421 2.433054 -12.21094 0.1160421 0.2176946 0.969094
-2.08729 14.30819 -3.576931 0.219729 -0.9698186 0.1056932
9.363685 2.924029 -5.915117 -0.9253685 0.1685971 0.3395118
1.159489 13.65178 -6.660616 -0.1049489 -0.9041785 0.4140616
-6.366395 12.16673 -3.495791 0.6476395 -0.7556728 0.09757903
8.052753 10.5719 -3.689789 -0.7942753 -0.5961901 0.1169787
8.333113 0.6186657 -6.575819 -0.8223113 0.3991334 0.405582
-1.537543 5.117904 -12.37026 0.1647543 -0.05079042 0.9850261
-8.952017 3.163017 -6.493171 0.9062017 0.1446983 0.3973171
-2.271153 14.30249 -3.141101 0.2381153 -0.969249 0.06211004
9.363589 6.430777 -5.845033 -0.925359 -0.1820777 0.3325032
-7.341816 0.2265496 -7.545514 0.7451817 0.4383451 0.5025513
-0.01405571 14.432 -4.394279 0.01240557 -0.9822 0.1874279
-3.11287 10.3884 -10.01822 0.3222869 -0.5778397 0.7498216
2.659338 14.06832 -4.530241 -0.2549339 -0.945832 0.201024
0.8380247 12.32563 -8.839737 -0.07280246 -0.7715628 0.6319736
-4.518778 0.5067029 -10.37731 0.4628778 0.4103297 0.7857313
-4.139788 -0.1098413 -10.24414 0.4249789 0.4719841 0.7724144
0.543118 12.19166 -9.026212 -0.0433118 -0.7581664 0.6506211
-0.4530717 7.841606 -11.96667 0.05630717 -0.3231606 0.9446675
7.595169 6.315847 -8.927991 -0.7485168 -0.1705847 0.6407991
6.377724 0.3338857 -9.033869 -0.6267725 0.4276114 0.6513868
2.718075 6.441931 -11.9985 -0.2608075 -0.1831931 0.94785
-5.483711 12.7807 -3.916441 0.5593711 -0.8170701 0.1396441
-2.951794 13.96302 -4.293824 0.3061795 -0.9353018 0.1773824
4.334792 9.578932 -10.10029 -0.4224792 -0.4968932 0.7580294
-4.885825 3.052872 -11.04156 0.4995826 0.1557128 0.8521565
2.507349 14.08765 -4.624013 -0.2397349 -0.947765 0.2104013
0.08755077 14.0616 -5.786011 0.002244923 -0.9451596 0.3266011
6.817777 11.40814 -5.484965 -0.6707777 -0.679814 0.2964965
3.950091 3.460249 -11.68143 -0.3840092 0.1149751 0.9161428
-1.649979 13.53925 -6.66379 0.1759979 -0.8929248 0.414379
3.044489 12.79566 -7.457988 -0.2934489 -0.8185661 0.4937987
4.172337 7.999255 -11.00589 -0.4062337 -0.3389256 0.8485892
5.013231 8.838932 -10.14066 -0.4903231 -0.4228932 0.762066
-0.2949474 11.05835 -10.15248 0.04049474 -0.6448352 0.7632481
-9.38223 7.312882 -4.129972 0.9492229 -0.2702883 0.1609972
-0.6762084 8.216083 -11.81398 0.07862087 -0.3606084 0.9293979
0.1175224 13.32864 -7.417484 -0.0007522433 -0.8718635 0.4897484
7.319453 10.52361 -6.132895 -0.7209453 -0.591361 0.3612895
-2.229002 4.557039 -12.24246 0.2339002 0.005296088 0.9722462
4.764263 12.8687 -5.703042 -0.4654263 -0.8258698 0.3183041
-8.165346 0.3856001 -6.217715 0.8275346 0.42244 0.3697715
6.083537 1.401837 -9.87014 -0.5973536 0.3208163 0.735014
-2.349005 11.92 -8.885311 0.2459006 -0.731 0.6365311
3.297685 14.03656 -3.509276 -0.3187687 -0.9426558 0.09892762
-1.308736 6.32957 -12.26835 0.1418736 -0.171957 0.9748347
9.037539 8.685215 -4.44137 -0.892754 -0.4075215 0.1921371
-8.805566 5.499465 -6.960895 0.8915565 -0.08894649 0.4440895
1.574606 11.22196 -9.877775 -0.1464606 -0.6611965 0.7357775
-7.607447 9.357179 -6.751466 0.7717447 -0.4747179 0.4231466
6.313913 12.43251 -3.085498 -0.6203912 -0.7822512 0.05654976
6.604839 10.41336 -7.433052 -0.6494839 -0.580336 0.4913052
8.338071 9.897642 -4.603191 -0.8228071 -0.5287641 0.2083191
-9.748947 5.222742 -4.077476 0.9858946 -0.06127419 0.1557475
-5.278692 10.41273 -8.626584 0.5388693 -0.5802727 0.6106583
-0.2836922 14.42904 -4.372445 0.03936924 -0.9819036 0.1852445
-9.108746 0.8317034 -3.379776 0.9218745 0.3778297 0.08597756
2.565886 9.116098 -11.10276 -0.2455886 -0.4506099 0.8582756
1.824172 -0.3737984 -11.01843 -0.1714172 0.4983799 0.8498434
-2.083762 14.31655 -3.50508 0.2193761 -0.9706546 0.09850787
-3.901755 -0.02744246 -10.41936 0.4011755 0.4637443 0.7899364
-4.401181 7.451609 -10.98017 0.4511182 -0.2841609 0.8460171
-5.896021 3.097357 -10.37109 0.6006022 0.1512644 0.785109
-8.480976 6.029699 -7.437276 0.8590975 -0.1419699 0.4917276
-7.397115 10.84727 -4.697092 0.7507115 -0.6237267 0.2177092
-7.927979 9.937584 -5.167214 0.803798 -0.5327584 0.2647215
8.327591 4.306204 -8.210247 -0.8217591 0.03037963 0.5690247
-9.789008 5.336915 -3.737053 0.9899009 -0.07269154 0.1217052
-6.576001 3.071018 -9.795226 0.6686002 0.1538983 0.7275226
0.9538713 4.331411 -12.48043 -0.08438715 0.02785888 0.9960435
7.887635 10.3671 -5.042745 -0.7777635 -0.5757096 0.2522743
0.5696574 6.110363 -12.39611 -0.04596574 -0.1500362 0.9876114
-3.745874 11.34906 -8.822162 0.3855875 -0.6739065 0.6302161
8.113955 10.10342 -4.9198 -0.8003955 -0.549342 0.2399798
-2.739423 11.52401 -9.15907 0.2849422 -0.691401 0.6639071
0.4575328 13.98806 -5.974152 -0.03475328 -0.9378062 0.3454152
-9.307128 1.271507 -2.93493 0.9417128 0.3338493 0.04149297
-0.7093396 0.3860321 -11.547 0.08193396 0.4223968 0.9027002
-6.281197 1.632352 -9.611277 0.6391197 0.2977648 0.7091278
-3.015774 13.13631 -6.707078 0.3125774 -0.8526306 0.4187078
-2.289754 13.451 -6.529725 0.2399754 -0.8841001 0.4009724
5.136097 4.736322 -11.16421 -0.5026097 -0.01263218 0.8644211
1.827256 14.31135 -4.233135 -0.1717256 -0.9701351 0.1713135
7.677384 3.376471 -8.939743 -0.7567385 0.123353 0.6419742
-0.677865 13.62436 -6.776828 0.07878649 -0.9014361 0.4256827
2.060706 13.89315 -5.685105 -0.1950706 -0.9283149 0.3165106
9.663995 7.447509 -3.338365 -0.9553995 -0.283751 0.08183645
-3.525448 12.66313 -7.203008 0.3635448 -0.8053133 0.4683008
8.823154 0.1193919 -4.498728 -0.8713155 0.4490609 0.1978727
9.029869 1.72383 -5.999362 -0.891987 0.288617 0.3479361
-9.242228 1.839374 -4.72442 0.9352227 0.2770627 0.2204419
-5.760844 12.60993 -3.758684 0.5870844 -0.7999928 0.1238684
-6.061046 11.3595 -6.565053 0.6171046 -0.6749499 0.4045053
-3.840916 4.649272 -11.70633 0.3950917 -0.003927184 0.9186333
-1.908937 7.989335 -11.7126 0.2018937 -0.3379336 0.9192605
8.402864 2.352203 -7.631824 -0.8292865 0.2257797 0.5111824
-3.118373 13.59452 -5.495892 0.3228374 -0.8984525 0.297589
2.410992 14.30437 -3.371296 -0.2300993 -0.9694365 0.08512958
-2.725703 1.125769 -11.45414 0.2835703 0.3484232 0.8934144
-4.13763 9.037114 -10.41673 0.4247631 -0.4427115 0.7896727
-2.645054 4.950917 -12.12695 0.2755055 -0.03409167 0.9606948
-1.842456 8.115862 -11.67952 0.1952457 -0.3505862 0.9159522
-5.80284 12.1574 -5.361681 0.591284 -0.7547395 0.2841681
1.450939 2.20546 -12.13354 -0.1340939 0.240454 0.9613535
8.138575 2.098873 -7.927053 -0.8028575 0.2511127 0.5407053
-4.180388 13.41676 -4.52837 0.4290389 -0.880676 0.200837
6.790688 4.488037 -9.959995 -0.6680689 0.01219635 0.7439995
-7.095243 10.82818 -5.588993 0.7205243 -0.6218179 0.3068992
-8.320034 9.173445 -5.367719 0.8430034 -0.4563445 0.2847719
-8.953294 4.915086 -6.73469 0.9063295 -0.03050857 0.4214691
5.656211 5.905298 -10.7396 -0.5546211 -0.1295298 0.8219596
-1.372893 13.42123 -7.010346 0.1482894 -0.8811232 0.4490348
-3.52771 -0.3564177 -10.40047 0.363771 0.4966418 0.7880467
-3.768224 12.37768 -7.482109 0.3878223 -0.7767681 0.4962108
4.511052 7.030336 -11.16712 -0.4401052 -0.2420337 0.8647122
-0.3912586 6.323814 -12.35929 0.05012587 -0.1713814 0.9839287
7.802845 10.89591 -3.663473 -0.7692845 -0.6285906 0.1143471
7.518337 -0.3174877 -7.084692 -0.7408336 0.4927488 0.4564693
5.846823 5.59524 -10.65131 -0.5736824 -0.09852397 0.8131307
2.65374 9.600644 -10.80389 -0.2543741 -0.4990644 0.8283891
-3.41112 13.87781 -3.82746 0.3521119 -0.9267808 0.130746
1.981398 14.24521 -4.433257 -0.1871398 -0.9635212 0.1913258
3.707775 13.70942 -4.583168 -0.3597775 -0.9099415 0.2063165
-4.768705 13.30727 -3.265507 0.4878705 -0.8697268 0.07455051
9.142982 8.793983 -3.468421 -0.9032983 -0.4183984 0.09484194
-4.656943 8.638453 -10.33331 0.4766943 -0.4028453 0.7813311
-4.702975 4.028545 -11.26627 0.4812975 0.05814553 0.8746267
-5.875986 11.85789 -5.931168 0.5985985 -0.7247891 0.3411167
8.845236 6.589442 -6.967185 -0.8735237 -0.1979442 0.4447184
6.271151 11.29326 -6.688248 -0.6161151 -0.6683257 0.4168248
-1.452054 14.45167 -3.357604 0.1562054 -0.9841667 0.08376038
2.035957 13.90373 -5.669175 -0.1925957 -0.9293729 0.3149174
4.546678 3.352044 -11.39319 -0.4436678 0.1257956 0.8873186
-5.602015 8.191921 -9.905304 0.5712016 -0.3581921 0.7385304
-6.636564 4.818082 -9.898386 0.6746565 -0.02080817 0.7378386
8.791934 6.797733 -6.973969 -0.8681935 -0.2187733 0.4453968
10.09478 4.197938 -2.886567 -0.998478 0.04120622 0.03665637
-2.444141 13.98949 -4.865522 0.2554141 -0.9379494 0.2345521
-9.324239 5.050767 -5.806468 0.9434238 -0.04407668 0.3286467
-9.134811 7.204385 -5.31332 0.9244811 -0.2594385 0.2793319
-5.933263 7.474127 -9.954766 0.6043264 -0.2864128 0.7434766
6.43291 4.498435 -10.26651 -0.632291 0.01115646 0.7746506
-7.125021 11.48559 -3.137049 0.7235022 -0.6875589 0.06170464
1.118016 14.44457 -4.025026 -0.1008016 -0.9834572 0.1505025
2.493255 13.81568 -5.614448 -0.2383255 -0.9205677 0.3094446
-0.3634619 12.10908 -9.118458 0.0473462 -0.7499081 0.6598457
6.119205 10.61084 -7.800089 -0.6009206 -0.6000843 0.5280089
4.256974 4.037477 -11.60156 -0.4146974 0.05725237 0.9081565
-8.310822 9.190569 -5.36748 0.8420823 -0.4580569 0.284748
7.172738 1.576951 -8.916744 -0.7062739 0.303305 0.6396744
-6.461443 4.215688 -10.04733 0.6571444 0.0394312 0.7527327
7.019111 1.930244 -9.234394 -0.6909111 0.2679756 0.6714395
-1.170315 10.65978 -10.37881 0.1280315 -0.6049782 0.7858812
1.694929 1.142722 -11.76478 -0.1584929 0.3467278 0.9244782
1.92213 7.215435 -12.00303 -0.181213 -0.2605435 0.9483032
-4.784871 5.623209 -11.18104 0.4894872 -0.1013209 0.8661041
1.920624 9.84099 -10.84817 -0.1810624 -0.5230991 0.8328168
2.629942 9.264307 -11.00453 -0.2519943 -0.4654308 0.8484533
-8.219193 2.455749 -7.617426 0.8329192 0.2154251 0.5097427
0.7465867 14.38663 -4.523081 -0.06365865 -0.9776626 0.2003081
-7.676517 6.099236 -8.615271 0.7786517 -0.1489236 0.6095271
-7.029716 5.241618 -9.493199 0.7139717 -0.06316175 0.6973199
-9.016098 0.8161082 -4.043396 0.9126097 0.3793892 0.1523395
2.129561 13.79235 -5.926737 -0.2019561 -0.9182348 0.3406736
-5.416661 11.68686 -6.921598 0.5526661 -0.7076861 0.4401598
9.956881 5.730266 -3.85564 -0.9846881 -0.1120265 0.1335638
-7.982055 10.46745 -2.977085 0.8092056 -0.5857449 0.04570853
-9.095703 7.603348 -5.028963 0.9205703 -0.2993348 0.2508963
-2.276017 10.85152 -9.959782 0.2386017 -0.624152 0.7439782
-4.427433 13.05154 -5.375197 0.4537433 -0.8441538 0.2855197
7.102477 11.28146 -5.088449 -0.6992477 -0.6671457 0.2568449
-3.184768 8.655104 -11.05122 0.3294768 -0.4045103 0.8531216
-1.067892 14.42361 -4.038401 0.1177891 -0.9813614 0.1518402
-1.156019 8.082581 -11.81185 0.1266019 -0.347258 0.9291845
-3.755178 5.403692 -11.7086 0.3865178 -0.07936921 0.9188604
5.228721 4.036972 -11.09148 -0.5118721 0.05730285 0.8571484
5.82214 12.0087 -6.073966 -0.571214 -0.7398701 0.3553966
7.13398 5.474738 -9.585121 -0.7023979 -0.08647379 0.7065122
-3.352204 12.51667 -7.569521 0.3462204 -0.7906674 0.5049521
4.134898 3.106821 -11.54999 -0.4024898 0.150318 0.9029986
-8.54296 8.928001 -5.06581 0.865296 -0.4318001 0.254581
-5.351825 10.34764 -8.623106 0.5461825 -0.5737644 0.6103107
6.537829 0.9575109 -9.253672 -0.6427829 0.3652489 0.6733671
-2.201786 10.27657 -10.42858 0.2311786 -0.5666573 0.7908577
-9.800999 5.395956 -3.594424 0.9910998 -0.07859554 0.1074425
