-5.392869 6.722214 -10.59818 0.5502869 -0.2112213 0.807818
2.232083 3.657546 -12.24572 -0.2122083 0.09524541 0.9725718
-0.4186752 13.54 -6.989411 0.05286752 -0.8929998 0.4469411
6.676978 10.90484 -6.673285 -0.6566978 -0.6294842 0.4153284
0.9799454 12.90436 -8.037868 -0.08699454 -0.8294355 0.5517868
-3.971 13.68557 -3.509689 0.4081001 -0.907557 0.09896877
-1.308214 7.023581 -12.12017 0.1418214 -0.2413581 0.9600172
-3.766455 13.76839 -3.567368 0.3876456 -0.9158391 0.1047368
-0.0629354 5.850597 -12.44124 0.01729354 -0.1240597 0.992124
-4.521459 1.380875 -10.77363 0.4631459 0.3229125 0.8253626
6.982787 7.709772 -9.08934 -0.6872787 -0.3099772 0.656934
-5.637013 3.927098 -10.67509 0.5747014 0.06829019 0.8155089
2.506146 13.83089 -5.558707 -0.2396147 -0.9220886 0.3038707
-1.139167 12.41237 -8.648834 0.1249167 -0.780237 0.6128834
-7.691572 10.21614 -5.296104 0.7801571 -0.5606134 0.2776104
-3.237415 13.67558 -5.091018 0.3347415 -0.9065576 0.2571017
3.250347 2.134643 -11.68574 -0.3140347 0.2475357 0.9165742
-2.550125 14.20094 -3.488259 0.2660125 -0.9590944 0.09682599
6.943232 10.84926 -6.311905 -0.6833231 -0.6239264 0.3791905
9.511745 2.402963 -5.115412 -0.9401746 0.2207038 0.2595412
-6.871773 11.53314 -4.343451 0.6981773 -0.692314 0.1823452
-2.196256 9.403107 -10.98802 0.2306256 -0.4793106 0.8468017
-0.5681221 12.69011 -8.37252 0.06781222 -0.8080109 0.585252
-4.140811 13.61584 -3.428538 0.4250812 -0.900584 0.09085382
-9.782491 5.982636 -3.024499 0.989249 -0.1372636 0.05044973
-5.932513 3.132208 -10.3497 0.6042513 0.1477792 0.7829698
-2.552125 13.93886 -4.946004 0.2662126 -0.9328858 0.2426005
-1.242345 13.50387 -6.88694 0.1352345 -0.8893874 0.4366938
4.640154 13.38644 -4.085826 -0.4530154 -0.877644 0.1565825
1.253625 8.948549 -11.45695 -0.1143625 -0.4338549 0.8936952
2.577063 10.88151 -9.907948 -0.2467063 -0.6271508 0.7387949
0.1921495 14.20995 -5.318954 -0.008214951 -0.9599954 0.2798954
-6.255396 7.968122 -9.462964 0.6365396 -0.3358123 0.6942964
-2.65347 4.828918 -12.12809 0.276347 -0.02189183 0.9608086
-2.727951 14.1502 -3.484666 0.2837951 -0.9540203 0.09646654
-7.547328 5.992923 -8.801149 0.7657329 -0.1382923 0.6281149
-3.9436 10.16389 -9.781034 0.40536 -0.5553892 0.7261034
-8.514964 3.194667 -7.378687 0.8624964 0.1415333 0.4858685
-8.076115 10.23896 -3.66119 0.8186115 -0.5628962 0.1141189
-5.60343 10.59015 -8.140902 0.5713431 -0.5980149 0.5620902
-6.946594 8.370001 -8.52557 0.7056595 -0.3760001 0.600557
9.48349 1.361582 -3.779156 -0.937349 0.3248418 0.1259156
-9.349032 2.120962 -4.601201 0.9459032 0.2489038 0.20812
-2.812474 14.14616 -3.241724 0.2922474 -0.9536155 0.07217225
6.294705 11.53125 -6.240985 -0.6184704 -0.692125 0.3720986
-7.965095 9.953474 -5.018025 0.8075095 -0.5343474 0.2498025
1.130885 14.37796 -4.402764 -0.1020884 -0.9767958 0.1882764
-0.9571323 0.1158566 -11.38927 0.1067133 0.4494145 0.8869267
0.6348485 12.87779 -8.120731 -0.05248485 -0.8267791 0.560073
4.544134 11.01088 -8.794325 -0.4434134 -0.6400883 0.6274325
-8.783984 0.1848502 -3.666786 0.8893983 0.442515 0.1146784
-9.0618 7.176698 -5.567976 0.9171799 -0.2566698 0.3047976
-9.3697 3.586016 -5.534422 0.94797 0.1023984 0.3014422
6.390019 11.73802 -5.642934 -0.6280019 -0.7128019 0.3122934
9.818801 3.072521 -4.35721 -0.9708802 0.1537479 0.183721
6.834244 0.5146437 -8.685436 -0.6724244 0.4095356 0.6165436
6.037238 10.71596 -7.772149 -0.5927238 -0.6105963 0.5252148
3.750759 4.769369 -11.83233 -0.364076 -0.0159369 0.9312329
-7.660238 9.339348 -6.674115 0.7770237 -0.4729348 0.4154114
1.12407 12.15627 -9.002708 -0.1014069 -0.7546268 0.6482708
-2.044522 9.910963 -10.72109 0.2154522 -0.5300964 0.8201087
-8.782011 5.269732 -7.04735 0.889201 -0.06597319 0.452735
-3.779243 5.306705 -11.70632 0.3889242 -0.06967044 0.9186316
5.454462 11.42123 -7.524383 -0.5344462 -0.6811232 0.5004383
-4.301759 13.57405 -2.946854 0.441176 -0.8964049 0.0426853
2.813948 13.70344 -5.681958 -0.2703948 -0.9093443 0.3161958
-8.353209 8.314513 -6.347622 0.8463209 -0.3704513 0.3827622
2.037613 13.59052 -6.474067 -0.1927613 -0.8980516 0.3954065
6.212242 12.53193 -2.595634 -0.6102241 -0.7921927 0.007563262
-4.067459 9.076978 -10.4317 0.4177459 -0.4466977 0.7911697
-4.209457 3.528508 -11.47392 0.4319458 0.1081493 0.8953919
-4.531049 10.07688 -9.489494 0.4641049 -0.5466883 0.6969494
-6.127178 12.18711 -4.439628 0.6237178 -0.7577113 0.1919628
-4.407398 13.49358 -3.341656 0.4517399 -0.888358 0.0821655
-7.483565 10.79016 -4.555532 0.7593566 -0.6180159 0.2035532
-2.376838 5.659732 -12.1488 0.2486839 -0.1049732 0.9628795
2.92543 13.84529 -5.124371 -0.2815431 -0.9235291 0.260437
-7.179081 11.44593 -2.893333 0.7289081 -0.6835929 0.03733312
-8.900138 8.942471 -2.737082 0.9010137 -0.433247 0.02170827
-7.115446 10.40701 -6.286652 0.7225446 -0.5797005 0.3766652
-9.810463 5.488442 -3.421535 0.9920462 -0.08784422 0.09015355
1.843547 14.45731 -2.679206 -0.1733547 -0.9847308 0.01592049
8.519677 3.507899 -7.817424 -0.8409678 0.1102101 0.5297424
-6.736785 3.652263 -9.745253 0.6846786 0.0957737 0.7225252
-7.860555 6.426823 -8.279289 0.7970555 -0.1816823 0.5759289
-5.924226 10.01451 -8.383396 0.6034226 -0.5404508 0.5863395
2.736033 13.27281 -6.769671 -0.2626033 -0.8662808 0.424967
-6.841835 2.471074 -9.382724 0.6951835 0.2138926 0.6862724
-7.68312 10.86539 -2.890602 0.7793121 -0.6255391 0.03706019
7.783084 3.369935 -8.811743 -0.7673084 0.1240065 0.6291743
9.244096 3.459497 -6.424437 -0.9134097 0.1150503 0.3904437
-9.032037 7.791897 -5.029721 0.9142036 -0.3181897 0.2509722
-6.04393 0.1247849 -9.001667 0.6153929 0.4485215 0.6481667
2.174019 14.34411 -3.513438 -0.2064018 -0.973411 0.09934364
5.15102 13.12896 -3.939683 -0.5041019 -0.8518957 0.1419681
-5.50788 2.946209 -10.62378 0.5617879 0.1663791 0.8103779
7.527164 10.13827 -6.317883 -0.7417164 -0.5528269 0.3797883
2.514461 9.849606 -10.69099 -0.2404462 -0.5239607 0.817099
-5.647398 12.7633 -3.133237 0.5757397 -0.81533 0.06132369
-1.107302 13.96618 -5.833605 0.1217303 -0.9356185 0.3313604
0.8920608 14.22437 -5.156727 -0.07820609 -0.9614367 0.2636727
-4.338961 6.507936 -11.2724 0.4448962 -0.1897935 0.8752404
-8.890568 8.094889 -5.136359 0.9000568 -0.3484889 0.2616357
8.893563 0.5579562 -5.055733 -0.8783564 0.4052044 0.2535734
4.472403 10.48052 -9.33956 -0.4362404 -0.5870525 0.6819558
7.049471 11.8054 -2.784589 -0.693947 -0.7195398 0.02645886
0.8674927 10.42518 -10.62 -0.07574929 -0.5815178 0.8099995
5.981132 0.9520633 -9.741448 -0.5871131 0.3657937 0.7221448
-0.5826 6.917017 -12.22556 0.06926 -0.2307017 0.9705564
-8.458593 7.925451 -6.468037 0.8568593 -0.3315451 0.3948037
-4.054572 13.58414 -3.976454 0.4164571 -0.8974134 0.1456454
4.154861 13.75136 -2.793198 -0.404486 -0.9141361 0.0273197
1.195291 14.30815 -4.70358 -0.1085291 -0.9698151 0.218358
-1.698976 3.828131 -12.32389 0.1808976 0.07818689 0.9803891
-0.3995402 14.06528 -5.735292 0.05095403 -0.9455277 0.3215293
5.199946 12.86692 -4.952217 -0.5089946 -0.8256923 0.2432217
10.02033 5.751668 -3.214187 -0.9910333 -0.1141668 0.06941857
-0.2640531 0.839642 -11.77443 0.03740531 0.3770359 0.9254431
7.297846 11.50242 -3.43075 -0.7187846 -0.6892416 0.09107504
3.480983 13.92867 -3.861212 -0.3370983 -0.9318671 0.1341212
6.171528 8.400293 -9.512249 -0.6061529 -0.3790294 0.6992249
8.252836 10.41073 -2.733997 -0.8142836 -0.5800726 0.02139968
1.364164 11.71671 -9.442548 -0.1254165 -0.7106715 0.6922548
-1.728083 13.41338 -6.892874 0.1838084 -0.8803376 0.4372874
-7.865075 10.43939 -4.074487 0.7975075 -0.5829386 0.1554487
8.116146 3.633761 -8.431732 -0.8006147 0.09762387 0.5911732
-7.089434 9.662708 -7.277972 0.7199433 -0.5052708 0.4757972
-3.747613 8.619246 -10.82932 0.3857613 -0.4009245 0.8309319
8.067411 10.60186 -3.401618 -0.7957412 -0.5991857 0.08816171
-6.335076 12.10085 -4.052372 0.6445076 -0.749085 0.1532371
0.9462985 6.09504 -12.37369 -0.08362984 -0.148504 0.9853693
8.836749 -0.1174154 -3.742855 -0.8726751 0.4727415 0.1222854
5.911196 1.552753 -10.06979 -0.5801196 0.3057247 0.7549792
0.7367465 14.45547 -4.15518 -0.06267466 -0.9845475 0.163518
-1.111435 10.69661 -10.35973 0.1221435 -0.6086608 0.7839726
3.440095 11.24171 -9.223052 -0.3330095 -0.6631709 0.6703052
-1.707984 6.066501 -12.24489 0.1817985 -0.1456501 0.9724892
-2.914621 13.09901 -6.854554 0.3024621 -0.8489011 0.4334553
-3.622703 12.95174 -6.579837 0.3732704 -0.8341742 0.4059836
-1.685995 2.648698 -12.1599 0.1795995 0.1961303 0.9639901
2.782579 0.5310111 -11.25036 -0.2672579 0.4078989 0.8730359
6.239383 11.72824 -5.949479 -0.6129383 -0.711824 0.3429479
1.333328 0.3684506 -11.49289 -0.1223328 0.4241549 0.8972889
3.467398 11.75891 -8.653599 -0.3357398 -0.7148905 0.6133599
9.19416 2.102378 -5.865124 -0.9084161 0.2507622 0.3345122
6.665586 12.15177 -2.902183 -0.6555586 -0.7541765 0.0382183
-2.788537 12.01784 -8.579905 0.2898537 -0.7407837 0.6059904
2.610362 2.146113 -11.88362 -0.2500364 0.2463888 0.9363623
9.272188 1.127584 -4.501686 -0.9162189 0.3482416 0.1981684
9.459988 6.691907 -5.391129 -0.9349988 -0.2081907 0.287113
-1.930102 14.13474 -4.782173 0.2040101 -0.9524734 0.2262172
-3.826627 13.661 -4.126984 0.3936627 -0.9050999 0.1606985
-3.620589 0.2253952 -10.69667 0.3730589 0.4384605 0.817667
-4.012051 10.80638 -9.199339 0.412205 -0.619638 0.6679339
3.111736 14.14413 -2.81996 -0.3001737 -0.9534128 0.02999595
8.67408 3.845345 -7.626059 -0.8564081 0.07646549 0.5106058
1.344135 6.067048 -12.336 -0.1234135 -0.1457048 0.9816003
-2.553494 5.74109 -12.09217 0.2663495 -0.113109 0.957217
0.7417986 13.76141 -6.501528 -0.06317985 -0.9151408 0.3981528
7.994736 4.690105 -8.670166 -0.7884735 -0.00801053 0.6150166
4.131878 0.2118983 -10.55002 -0.4021878 0.4398103 0.8030018
1.487344 10.0858 -10.7734 -0.1377344 -0.5475796 0.8253398
-0.8940977 11.86815 -9.325222 0.1004098 -0.7258151 0.6805221
-5.285543 0.5874572 -9.916436 0.5395542 0.4022543 0.7396436
0.4155338 8.664083 -11.65625 -0.03055338 -0.4054084 0.9136249
-0.9404417 13.84822 -6.201294 0.1050442 -0.9238216 0.3681295
0.4317847 14.15598 -5.481555 -0.03217848 -0.9545975 0.2961555
-4.559841 7.729873 -10.79399 0.4669841 -0.3119873 0.8273994
-7.489052 3.91473 -8.983049 0.7599053 0.06952702 0.6463049
-0.8978264 12.81151 -8.15201 0.1007826 -0.820151 0.563201
-9.078412 2.528189 -5.872485 0.9188412 0.2081811 0.3352484
-7.345438 1.304889 -8.307287 0.7455438 0.3305112 0.5787287
3.467646 4.997652 -11.93148 -0.3357646 -0.0387652 0.9411479
-0.1430687 10.10658 -10.87007 0.02530688 -0.5496578 0.8350065
-0.875918 -0.164834 -11.25092 0.09859182 0.4774835 0.8730918
-6.183172 0.700052 -9.236271 0.6293172 0.3909948 0.6716271
-6.36991 8.408531 -9.121662 0.6479909 -0.3798531 0.6601662
8.527742 7.266825 -7.219244 -0.8417742 -0.2656824 0.4699244
-3.31533 13.33436 -6.006072 0.342533 -0.8724358 0.3486071
1.245808 5.62307 -12.4035 -0.1135808 -0.101307 0.9883503
6.631189 12.12998 -3.481237 -0.6521189 -0.7519981 0.09612375
0.4585282 14.01559 -5.898359 -0.03485281 -0.9405595 0.3378359
9.702457 1.792833 -2.739858 -0.9592457 0.2817167 0.02198561
-0.8621072 5.753139 -12.40677 0.09721073 -0.1143139 0.9886771
-9.37363 1.441312 -2.662134 0.9483629 0.3168688 0.01421344
4.610245 2.833354 -11.27165 -0.4500245 0.1776646 0.8751647
-3.177802 8.457132 -11.14496 0.3287802 -0.3847133 0.862496
-6.594985 5.702415 -9.858242 0.6704985 -0.1092415 0.7338243
2.756534 13.06142 -7.164284 -0.2646534 -0.8451419 0.4644284
8.986725 7.410079 -6.175588 -0.8876725 -0.2800079 0.3655587
-9.55619 6.655656 -4.062746 0.966619 -0.2045656 0.1542745
8.468582 7.884227 -6.92608 -0.8358583 -0.3274227 0.4406079
2.426273 13.81256 -5.673995 -0.2316273 -0.9202564 0.3153996
2.042929 5.865923 -12.2507 -0.193293 -0.1255923 0.9730695
1.206479 13.63212 -6.69123 -0.1096479 -0.9022116 0.417123
3.567549 12.71279 -7.251817 -0.3457549 -0.8102794 0.4731817
-0.9868098 2.246548 -12.17459 0.109681 0.2363452 0.965459
-4.584324 13.24752 -4.352081 0.4694325 -0.8637522 0.1832081
-8.997893 7.642077 -5.322283 0.9107894 -0.3032077 0.2802282
7.017015 11.7708 -3.52799 -0.6907014 -0.7160804 0.1007989
-0.9585609 11.61009 -9.580946 0.1068561 -0.7000087 0.7060946
8.738093 0.4140239 -5.339538 -0.8628094 0.4195976 0.2819538
8.024739 -0.2947264 -6.166991 -0.7914739 0.4904727 0.3646992
-2.39035 6.792791 -11.95312 0.250035 -0.2182791 0.9433116
5.472878 3.48681 -10.88528 -0.5362879 0.112319 0.8365284
1.5393 7.434049 -12.00588 -0.14293 -0.2824049 0.9485877
0.6047833 9.940033 -10.96665 -0.04947834 -0.5330033 0.8446652
2.925046 13.8721 -5.027812 -0.2815046 -0.9262095 0.2507811
-5.957222 11.55132 -6.393876 0.6067222 -0.6941319 0.3873876
-5.345064 6.041825 -10.77785 0.5455065 -0.1431825 0.8257853
-0.9128819 14.28189 -4.84558 0.1022882 -0.9671887 0.2325578
-4.147045 5.11769 -11.55437 0.4257045 -0.05076895 0.9034369
6.166459 1.945171 -10.01787 -0.6056459 0.2664829 0.7497866
-6.261341 12.18223 -3.957833 0.637134 -0.7572229 0.1437832
-6.928062 11.70083 -2.951031 0.7038063 -0.7090831 0.04310319
-0.8336551 14.35122 -4.573791 0.09436557 -0.9741225 0.2053791
-0.6909468 8.920295 -11.50776 0.08009469 -0.4310295 0.8987761
1.65534 14.437 -3.540791 -0.1545339 -0.9826999 0.1020791
4.727762 4.33372 -11.38566 -0.4617763 0.027628 0.886566
6.570968 7.351816 -9.643085 -0.6460968 -0.2741816 0.7123085
9.128503 8.699093 -3.91497 -0.9018502 -0.4089093 0.139497
-6.604276 8.760963 -8.659056 0.6714276 -0.4150963 0.6139056
0.4585858 13.9565 -6.058551 -0.03485858 -0.9346504 0.3538551
1.779843 7.164332 -12.04297 -0.1669843 -0.2554333 0.9522973
6.295375 9.135523 -8.943457 -0.6185374 -0.4525522 0.6423457
-3.049122 5.094351 -11.99551 0.3159122 -0.04843511 0.9475513
-0.767265 6.879782 -12.21941 0.08772651 -0.2269782 0.9699407
7.321123 11.31994 -4.245238 -0.7211123 -0.6709938 0.1725238
-3.542563 12.19964 -7.910381 0.3652563 -0.7589638 0.5390379
-7.607116 2.856442 -8.633196 0.7717116 0.1753558 0.6113195
3.706011 3.286799 -11.75677 -0.3596012 0.1323201 0.9236766
6.217807 10.40514 -7.915467 -0.6107808 -0.5795139 0.5395467
-7.033185 10.82194 -5.742843 0.7143185 -0.6211939 0.3222843
-2.012119 14.11066 -4.80782 0.2122119 -0.9500657 0.2287821
-9.789927 3.667245 -3.570083 0.9899926 0.09427549 0.1050083
-8.6702 6.780829 -6.785629 0.87802 -0.2170829 0.4265629
-2.197202 7.596617 -11.7805 0.2307202 -0.2986617 0.9260504
-5.389413 2.991149 -10.71364 0.5499414 0.1618851 0.8193642
4.029904 11.50645 -8.608782 -0.3919905 -0.6896454 0.6088782
5.383721 3.353544 -10.92293 -0.5273722 0.1256456 0.8402927
4.569869 5.211535 -11.45016 -0.4459869 -0.0601535 0.8930158
-6.986629 10.15282 -6.869141 0.7096629 -0.5542818 0.4349141
-6.127959 3.048035 -10.17821 0.6237959 0.1561965 0.7658207
5.257901 3.191867 -10.97506 -0.5147901 0.1418133 0.8455059
7.573219 11.20399 -3.425386 -0.7463218 -0.6593986 0.09053861
-6.263611 12.30162 -2.984801 0.637361 -0.7691622 0.04648007
-8.621224 1.769559 -6.482022 0.8731225 0.2840441 0.3962021
8.437113 8.927723 -5.986475 -0.8327113 -0.4317723 0.3466474
-7.656592 9.983131 -5.807781 0.7766593 -0.537313 0.3287782
4.467199 13.32247 -4.780023 -0.4357199 -0.8712469 0.2260021
-9.310043 2.82601 -5.362567 0.9420043 0.178399 0.2842567
3.171924 14.06431 -3.633881 -0.3061924 -0.9454306 0.111388
-4.17393 5.637832 -11.49728 0.4283929 -0.1027832 0.8977277
-7.101271 7.915842 -8.608431 0.7211272 -0.3305842 0.608843
-0.4366818 11.04108 -10.15822 0.05466818 -0.6431081 0.7638215
-6.505943 12.03861 -3.542314 0.6615943 -0.7428606 0.1022314
6.834678 11.26637 -5.75596 -0.6724678 -0.6656371 0.3235961
-3.192081 0.8289125 -11.16868 0.3302082 0.3781088 0.8648678
4.728122 8.298083 -10.58666 -0.4618122 -0.3688083 0.806666
-1.473887 12.53397 -8.410837 0.1583887 -0.7923973 0.5890838
-0.8802449 12.5503 -8.517591 0.0990245 -0.7940298 0.599759
-3.980462 7.517636 -11.1695 0.4090462 -0.2907636 0.8649496
-7.251265 10.98083 -4.805666 0.7361266 -0.6370833 0.2285664
2.185377 13.28582 -7.039169 -0.2075377 -0.8675824 0.4519169
-0.4877034 12.21976 -8.980206 0.05977035 -0.7609765 0.6460204
8.148369 10.39643 -3.899072 -0.8038369 -0.578643 0.1379072
2.712122 3.434095 -12.10364 -0.2602122 0.1175905 0.9583642
6.128892 12.56971 -3.16491 -0.6018892 -0.7959713 0.06449105
-0.5010085 11.89234 -9.345995 0.06110085 -0.728234 0.6825994
-7.859169 10.40162 -4.237406 0.796917 -0.5791619 0.1717404
-4.55974 4.927578 -11.35701 0.466974 -0.03175783 0.8837006
-1.581947 13.03518 -7.634062 0.1691947 -0.8425182 0.5114061
1.588244 8.947811 -11.40809 -0.1478244 -0.4337811 0.8888093
8.880208 9.39344 -2.969589 -0.877021 -0.478344 0.04495895
7.003248 9.825355 -7.548241 -0.6893248 -0.5215355 0.5028242
1.53313 6.189225 -12.29143 -0.142313 -0.1579225 0.9771425
0.4438697 11.50316 -9.756914 -0.03338697 -0.6893157 0.7236914
9.103641 7.334641 -5.939174 -0.8993642 -0.2724641 0.3419172
1.460558 4.396209 -12.42607 -0.1350558 0.02137914 0.9906073
-8.289141 9.761238 -4.228569 0.839914 -0.5151237 0.1708569
-5.681831 8.632568 -9.61039 0.5791833 -0.4022568 0.7090389
-8.747178 9.098118 -3.706254 0.8857178 -0.4488118 0.1186255
5.984215 7.826967 -9.94595 -0.5874215 -0.3216967 0.7425949
-9.290974 1.308859 -3.370979 0.9400973 0.3301141 0.0850979
-0.7248114 0.375092 -11.54046 0.08348116 0.4234909 0.9020457
6.826044 11.96743 -3.393487 -0.6716045 -0.735743 0.08734875
-8.359599 4.366429 -7.830986 0.8469599 0.02435708 0.5310985
-2.248941 3.546746 -12.17945 0.2358941 0.1063255 0.9659445
8.008861 -0.3151321 -6.173912 -0.7898861 0.4925132 0.3653912
-9.477748 7.41217 -2.992148 0.9587748 -0.2802171 0.04721483
-0.8173319 14.41467 -4.254538 0.09273323 -0.9804664 0.1734537
-8.172806 5.587528 -8.037207 0.8282806 -0.09775276 0.5517207
1.477742 6.159739 -12.30405 -0.1367742 -0.154974 0.9784048
5.075143 13.02185 -4.662001 -0.4965144 -0.8411847 0.2142
6.556356 -0.04559088 -8.583824 -0.6446356 0.4655591 0.6063825
5.328459 6.617417 -10.81084 -0.5218459 -0.2007417 0.8290836
-9.613417 2.282212 -2.711257 0.9723417 0.2327788 0.01912568
4.265217 13.5268 -4.315779 -0.4155217 -0.8916801 0.1795779
-0.3897163 12.98052 -7.968366 0.04997163 -0.837052 0.5448365
-8.330496 5.734887 -7.763345 0.8440495 -0.1124886 0.5243345
-4.565419 11.58327 -7.952678 0.4675419 -0.6973268 0.5432678
2.812368 11.76995 -8.956799 -0.2702368 -0.7159947 0.6436798
-0.1019477 7.505477 -12.08929 0.02119477 -0.2895477 0.9569289
8.864505 1.812321 -6.461018 -0.8754506 0.279768 0.3941016
7.221539 0.9735589 -8.536837 -0.7111539 0.3636441 0.6016836
9.15801 6.927593 -6.092435 -0.9048009 -0.2317593 0.3572435
4.758113 13.45882 -2.825624 -0.4648113 -0.8848821 0.03056228
-4.230908 3.260534 -11.42705 0.4340908 0.1349466 0.8907046
-8.405817 0.2985935 -5.502051 0.8515817 0.4311407 0.2982052
5.01941 0.1195741 -9.985506 -0.490941 0.4490426 0.7465506
-5.742259 9.476524 -9.005985 0.5852259 -0.4866524 0.6485986
9.532375 4.02613 -5.818171 -0.9422375 0.05838699 0.3298172
2.041638 14.31683 -3.950465 -0.1931638 -0.970683 0.1430464
-7.343483 11.23867 -3.231598 0.7453483 -0.6628666 0.07115985
0.154103 13.86367 -6.310472 -0.004410296 -0.9253668 0.3790472
1.922796 14.41172 -3.320067 -0.1812796 -0.9801718 0.0800066
4.349694 8.797627 -10.55049 -0.4239695 -0.4187628 0.803049
3.603291 0.3779683 -10.87983 -0.3493292 0.4232033 0.8359833
4.742581 13.04726 -5.231424 -0.4632581 -0.8437261 0.2711424
2.042919 13.18108 -7.294985 -0.1932919 -0.8571076 0.4774985
-8.91455 8.917818 -2.53499 0.9024549 -0.4307818 0.001498841
1.280071 1.664572 -12.00448 -0.1170071 0.2945427 0.9484482
-4.256944 13.50455 -3.86787 0.4366944 -0.8894551 0.1347869
-4.515141 11.78284 -7.731369 0.4625142 -0.7172846 0.5211368
-8.039635 8.920864 -6.39297 0.8149635 -0.4310864 0.3872971
-0.8091869 10.4588 -10.57895 0.09191868 -0.5848803 0.8058946
-7.982457 10.48337 -2.645028 0.8092456 -0.5873373 0.01250282
3.655226 3.0339 -11.73669 -0.3545226 0.15761 0.9216685
-9.659973 3.813379 -4.498136 0.9769974 0.07966208 0.1978135
2.847071 12.86827 -7.450468 -0.2737072 -0.8258265 0.4930467
-3.046159 10.11057 -10.25191 0.3156159 -0.5500571 0.7731907
-3.673742 1.10756 -11.08833 0.3783742 0.3502441 0.8568326
-4.56025 13.42058 -3.269934 0.4670249 -0.8810583 0.07499328
-3.964617 10.68693 -9.336777 0.4074617 -0.6076928 0.6816776
3.114435 14.01359 -4.115571 -0.3004435 -0.9403591 0.159557
5.545395 0.05880499 -9.57288 -0.5435395 0.4551195 0.7052879
1.291308 14.24753 -4.91218 -0.1181308 -0.963753 0.239218
-5.315176 5.152512 -10.90291 0.5425177 -0.05425115 0.8382908
-1.867521 14.39786 -3.055942 0.1977521 -0.9787859 0.05359423
-8.488191 3.375976 -7.474625 0.8598191 0.1234025 0.4954624
2.399266 11.44558 -9.450663 -0.2289266 -0.6835582 0.6930662
3.251672 13.96946 -4.110737 -0.3141673 -0.9359457 0.1590737
10.10917 4.638192 -2.645537 -0.9999173 -0.002819204 0.0125537
6.643845 4.471102 -10.08899 -0.6533844 0.01388979 0.7568989
3.682906 13.82276 -4.056019 -0.3572906 -0.9212762 0.153602
-1.668966 8.768158 -11.4388 0.1778966 -0.4158159 0.89188
3.507327 -0.1785102 -10.61496 -0.3397328 0.4788511 0.8094957
7.767621 10.24897 -5.612384 -0.765762 -0.5638972 0.3092386
6.358346 2.770126 -10.10769 -0.6248346 0.1839874 0.758769
4.809448 12.90442 -5.53957 -0.4699449 -0.8294419 0.301957
7.090863 0.6263323 -8.469617 -0.6980863 0.3983668 0.5949616
-9.702773 6.410187 -3.204709 0.9812773 -0.1800187 0.06847081
0.4560458 12.32538 -8.872416 -0.03460458 -0.771538 0.6352414
-6.415911 11.70971 -5.167007 0.6525911 -0.7099707 0.2647008
6.869271 0.6744194 -8.750848 -0.675927 0.3935581 0.6230848
-3.930955 13.69219 -3.608393 0.4040955 -0.9082185 0.1088391
-5.73233 3.761838 -10.59142 0.584233 0.08481624 0.8071418
7.873363 10.91004 -2.719367 -0.7763363 -0.6300036 0.01993653
2.944761 1.96257 -11.73712 -0.2834761 0.264743 0.9217117
1.205638 10.41205 -10.59068 -0.1095638 -0.580205 0.8070675
-5.79933 9.982072 -8.538361 0.5909331 -0.5372072 0.601836
2.47333 14.08989 -4.652221 -0.236333 -0.9479889 0.2132221
9.011668 0.4306359 -4.334723 -0.8901668 0.4179364 0.1814723
-4.398243 -0.08414364 -10.11215 0.4508244 0.4694144 0.7592151
8.509591 6.230925 -7.69875 -0.8399591 -0.1620925 0.517875
9.823184 6.705974 -3.642916 -0.9713184 -0.2095974 0.1122916
-2.117168 11.17947 -9.722902 0.2227168 -0.6569468 0.7202903
0.8396291 10.30389 -10.70824 -0.0729629 -0.5693889 0.8188239
-4.540332 13.30598 -4.179637 0.4650332 -0.8695977 0.1659637
8.826652 6.499475 -7.042152 -0.8716652 -0.1889474 0.4522152
8.350319 8.292025 -6.825794 -0.8240319 -0.3682024 0.4305793
0.2043834 3.306241 -12.4342 -0.009438343 0.1303759 0.9914197
-8.364569 8.972332 -5.545188 0.8474568 -0.4362332 0.3025188
8.949881 3.488648 -7.05862 -0.8839881 0.1121352 0.453862
9.95596 5.672377 -3.908677 -0.984596 -0.1062376 0.1388677
4.332659 11.75347 -8.100327 -0.4222659 -0.7143466 0.5580326
-9.290679 3.643798 -5.790122 0.9400679 0.09662026 0.3270121
8.086328 7.189277 -7.972111 -0.7976328 -0.2579277 0.5452111
-6.118255 10.36337 -7.821664 0.6228255 -0.5753365 0.5301663
-3.285512 7.984301 -11.29978 0.3395512 -0.3374301 0.8779783
3.052475 10.72283 -9.866777 -0.2942475 -0.6112831 0.7346778
7.045107 4.478897 -9.72327 -0.6935107 0.01311035 0.720327
4.482383 12.83028 -6.168188 -0.4372382 -0.822028 0.3648188
-9.529397 5.984733 -4.798629 0.9639396 -0.1374733 0.2278629
9.851773 4.801369 -4.769717 -0.9741774 -0.01913686 0.2249717
-5.44149 8.089424 -10.07477 0.5551491 -0.3479424 0.7554771
1.37287 13.24789 -7.397705 -0.1262871 -0.8637891 0.4877704
6.187643 2.76515 -10.24391 -0.6077643 0.184485 0.772391
-9.419057 1.623797 -3.048834 0.9529057 0.2986203 0.0528831
-1.507501 13.63599 -6.509378 0.1617501 -0.9025993 0.3989378
-8.07705 4.380395 -8.257551 0.818705 0.02296047 0.5737551
-2.641088 12.49753 -8.017132 0.2751088 -0.7887526 0.5497131
9.276499 8.435114 -3.67922 -0.91665 -0.3825114 0.115922
-6.217347 2.151603 -9.863091 0.6327347 0.2458397 0.734309
-5.430873 12.43892 -5.349614 0.5540874 -0.7828922 0.2829613
3.631503 11.06404 -9.298233 -0.3521503 -0.6454036 0.6778233
9.002813 9.033123 -3.683548 -0.8892814 -0.4423123 0.1163549
1.416697 13.82829 -6.169055 -0.1306697 -0.9218295 0.3649054
-8.506496 -0.1560397 -4.263807 0.8616496 0.4766039 0.1743807
2.154507 13.7872 -5.92574 -0.2044507 -0.9177196 0.340574
2.41518 14.33385 -2.884663 -0.2305181 -0.9723845 0.0364663
6.331251 8.080108 -9.538147 -0.6221251 -0.3470107 0.7018148
-7.368991 1.902685 -8.580953 0.7478991 0.2707315 0.6060952
9.588639 3.46798 -5.49509 -0.9478641 0.114202 0.297509
-2.283705 8.046545 -11.60077 0.2393705 -0.3436545 0.9080768
-2.190224 14.30471 -3.369488 0.2300224 -0.9694707 0.08494877
8.966103 0.275496 -4.187788 -0.8856103 0.4334504 0.1667787
-1.421781 0.05524302 -11.28971 0.1531781 0.4554758 0.8769711
-7.226765 10.20433 -6.376852 0.7336766 -0.5594334 0.385685
4.417881 13.50515 -4.04263 -0.4307882 -0.8895153 0.1522631
8.281657 4.659729 -8.283812 -0.8171658 -0.00497284 0.5763812
8.890473 0.7573016 -5.35901 -0.8780475 0.3852699 0.2839009
-6.654203 4.23521 -9.875616 0.6764204 0.03747902 0.7355616
-2.192436 13.79919 -5.722739 0.2302436 -0.9189193 0.3202739
8.183541 3.556572 -8.325878 -0.8073542 0.1053428 0.5805879
6.296019 7.27209 -9.912325 -0.6186019 -0.266209 0.7392324
-9.735354 5.984567 -3.606079 0.9845355 -0.1374567 0.1086077
6.887496 11.83139 -3.904581 -0.6777495 -0.7221391 0.1384581
8.45613 10.11672 -2.654865 -0.834613 -0.5506717 0.01348641
-5.166932 8.102805 -10.26302 0.5276933 -0.3492805 0.7743016
-6.989543 0.2343183 -8.038143 0.7099543 0.4375682 0.5518143
-1.714381 9.472803 -11.06545 0.1824382 -0.4862803 0.8545454
-1.392533 3.593609 -12.35409 0.1502533 0.1016391 0.9834091
8.372034 2.289128 -7.653456 -0.8262033 0.2320872 0.5133455
4.608013 6.858294 -11.16367 -0.4498013 -0.2248294 0.8643671
-0.248672 14.24577 -5.170146 0.03586719 -0.9635772 0.2650145
-8.202408 10.03139 -3.749822 0.8312408 -0.5421386 0.122982
6.936245 10.82018 -6.371764 -0.6826245 -0.6210176 0.3851765
8.342849 1.854097 -7.482378 -0.823285 0.2755904 0.4962376
3.633591 9.447268 -10.53156 -0.3523592 -0.4837269 0.8011563
9.628924 4.211311 -5.558277 -0.9518924 0.03986888 0.3038278
-4.941497 12.99702 -4.554761 0.5051498 -0.8387021 0.203476
-9.033509 0.7413905 -3.715874 0.9143509 0.3868609 0.1195875
4.711497 10.39766 -9.252701 -0.4601497 -0.5787657 0.67327
9.236693 1.642972 -5.330729 -0.9126694 0.2967028 0.281073
-8.952568 8.23156 -4.700404 0.9062568 -0.362156 0.2180405
8.370361 0.6820917 -6.562025 -0.8260362 0.3927909 0.4042025
5.872005 12.77201 -2.94534 -0.5762005 -0.8162009 0.04253383
9.101731 8.86931 -3.523522 -0.899173 -0.425931 0.1003521
7.045853 8.745437 -8.418484 -0.6935853 -0.4135436 0.5898484
2.492126 13.07762 -7.27657 -0.2382126 -0.8467615 0.4756571
-0.1816202 7.204688 -12.17311 0.02916202 -0.2594688 0.9653111
0.8309089 14.41112 -4.368899 -0.0720909 -0.9801115 0.1848899
1.317404 8.309618 -11.73168 -0.1207404 -0.3699618 0.9211677
3.781121 13.71717 -4.412687 -0.3671121 -0.9107174 0.1892686
5.48271 3.288106 -10.84986 -0.537271 0.1321894 0.8329861
-0.3873824 2.104359 -12.18822 0.04973825 0.2505642 0.9668214
6.577993 7.268177 -9.668368 -0.6467993 -0.2658176 0.7148368
-9.350869 1.964707 -4.389328 0.9460869 0.2645293 0.1869328
2.699007 8.993147 -11.12727 -0.2589007 -0.4383147 0.8607268
-2.921455 2.995316 -11.91165 0.3031456 0.1614685 0.9391649
6.870358 6.894606 -9.525579 -0.6760359 -0.2284606 0.7005578
1.252035 13.59354 -6.761674 -0.1142035 -0.8983538 0.4241673
-3.724437 5.12136 -11.74148 0.3834437 -0.05113602 0.9221475
5.835173 12.72887 -3.662955 -0.5725173 -0.811887 0.1142955
-3.973124 11.53823 -8.463707 0.4083124 -0.6928235 0.5943707
0.8660433 14.40527 -4.385746 -0.07560434 -0.9795274 0.1865744
7.802411 2.085413 -8.38969 -0.7692412 0.2524588 0.586969
-2.672879 12.4291 -8.098288 0.2782878 -0.7819098 0.5578287
1.495227 9.338297 -11.22197 -0.1385227 -0.4728297 0.8701974
-8.340919 1.78617 -7.059601 0.8450918 0.2823829 0.45396
-4.475385 2.17446 -11.06648 0.4585384 0.243554 0.8546484
-8.598719 -0.1138053 -3.877896 0.8708718 0.4723805 0.1357896
-8.400715 7.626896 -6.817218 0.8510715 -0.3016896 0.4297217
5.36304 3.255017 -10.92057 -0.525304 0.1354983 0.8400571
7.728542 11.08417 -2.727309 -0.7618542 -0.6474168 0.02073074
-5.134367 6.01717 -10.91741 0.5244367 -0.140717 0.839741
5.487193 3.604326 -10.89105 -0.5377194 0.1005674 0.8371046
4.440979 12.15739 -7.447429 -0.4330979 -0.7547388 0.4927429
-5.741299 4.701187 -10.62888 0.5851299 -0.009118652 0.8108884
7.614616 6.540952 -8.840773 -0.7504616 -0.1930952 0.6320772
1.672988 2.693777 -12.20943 -0.1562988 0.1916223 0.9689435
-6.539463 4.340073 -9.984033 0.6649463 0.0269927 0.7464033
2.120814 14.40543 -2.598285 -0.2010813 -0.9795432 0.007828503
-0.6876289 10.37523 -10.65178 0.07976291 -0.5765232 0.8131783
6.77059 6.146358 -9.819052 -0.6660591 -0.1536358 0.7299051
1.602468 14.34249 -4.266791 -0.1492468 -0.9732485 0.174679
7.102989 11.6497 -3.761273 -0.6992989 -0.7039698 0.1241273
-3.988895 7.145813 -11.28178 0.4098895 -0.2535813 0.8761775
2.268498 14.18703 -4.422968 -0.2158499 -0.9577035 0.1902967
-7.702643 10.20205 -5.29338 0.7812644 -0.5592045 0.2773378
8.676752 2.203061 -7.082609 -0.8566752 0.2406939 0.4562609
6.07685 2.170696 -10.16503 -0.5966851 0.2439305 0.764503
1.01356 13.45821 -7.090863 -0.09035607 -0.8848208 0.4570864
-8.826018 2.900882 -6.670482 0.8936018 0.1709118 0.4150482
9.287674 1.24386 -4.626987 -0.9177675 0.336614 0.2106985
5.253407 13.18531 -2.61695 -0.5143406 -0.8575312 0.009694844
-0.6621052 3.162066 -12.38445 0.07721052 0.1447934 0.9864448
9.492312 1.906139 -4.679015 -0.9382313 0.2703861 0.2159015
-2.271028 1.561854 -11.74169 0.2381028 0.3048146 0.9221687
-6.867493 0.5318284 -8.409237 0.6977494 0.4078172 0.5889236
-3.071954 13.89767 -4.421124 0.3181953 -0.9287674 0.1901124
2.463473 1.304852 -11.65987 -0.2353473 0.3305148 0.9139866
-1.421201 8.349321 -11.66729 0.1531201 -0.3739321 0.9147289
9.11171 8.921122 -3.139223 -0.900171 -0.4311122 0.06192227
-4.797098 12.49325 -6.231434 0.4907098 -0.7883252 0.3711433
9.79658 2.526421 -3.872346 -0.9686581 0.2083579 0.1352346
-6.579004 6.782871 -9.628858 0.6689004 -0.2172871 0.7108857
4.99731 0.7860255 -10.36165 -0.488731 0.3823975 0.7841647
-5.410967 9.629513 -9.177584 0.5520968 -0.5019513 0.6657583
-9.6724 5.633977 -4.324477 0.97824 -0.1023977 0.1804476
1.944662 14.43528 -2.83278 -0.1834663 -0.9825282 0.03127801
1.972894 11.62202 -9.401945 -0.1862894 -0.7012023 0.6881945
0.4773269 3.575139 -12.45952 -0.03673269 0.1034862 0.9939524
8.776335 0.413239 -5.218487 -0.8666335 0.4196761 0.2698488
-8.258023 7.420319 -7.218754 0.8368024 -0.2810319 0.4698754
5.021379 12.06233 -7.030122 -0.4911379 -0.7452326 0.4510121
-0.9920301 6.023772 -12.35803 0.110203 -0.1413772 0.9838027
-9.095894 1.005537 -4.023121 0.9205893 0.3604463 0.1503121
8.801264 9.451248 -3.532062 -0.8691263 -0.4841247 0.1012062
2.649728 13.92073 -5.139182 -0.2539728 -0.9310728 0.2619184
-6.12419 0.3703861 -9.089668 0.6234191 0.4239614 0.6569668
-0.5454611 2.406948 -12.25226 0.06554611 0.2203053 0.9732262
-8.194479 8.761303 -6.235149 0.8304479 -0.4151303 0.3715149
-0.2341594 13.87534 -6.26634 0.03441595 -0.9265338 0.3746342
1.819626 6.650671 -12.15913 -0.1709626 -0.2040672 0.9639131
5.933338 12.35588 -4.987815 -0.5823339 -0.7745878 0.2467816
-5.069839 10.24621 -8.954469 0.517984 -0.5636212 0.6434469
-4.806128 6.514971 -11.01722 0.4916128 -0.1904971 0.8497221
7.291234 1.636741 -8.812027 -0.7181234 0.297326 0.6292027
2.999527 6.709895 -11.86029 -0.2889528 -0.2099895 0.9340293
-0.5235784 5.042161 -12.49055 0.06335787 -0.04321609 0.9970548
3.179037 12.83554 -7.307648 -0.3069037 -0.8225536 0.4787649
5.820011 12.71157 -3.846823 -0.571001 -0.8101563 0.1326823
9.204961 4.59769 -6.677105 -0.9094961 0.001231003 0.4157106
8.827251 8.777445 -5.097193 -0.8717252 -0.4167445 0.2577193
-9.441541 5.938457 -5.166369 0.9551541 -0.1328456 0.264637
-1.176451 2.744307 -12.25983 0.1286451 0.1865693 0.9739827
-7.6527 8.564274 -7.429604 0.77627 -0.3954273 0.4909603
-8.771823 8.348902 -5.190928 0.8881822 -0.3738901 0.2670927
-8.702517 0.4748702 -4.80916 0.8812516 0.413513 0.2289161
-3.116756 -0.262332 -10.6347 0.3226756 0.4872332 0.8114704
-7.77342 5.05609 -8.656179 0.788342 -0.04460897 0.6136179
-4.109153 12.47179 -7.035634 0.4219152 -0.7861795 0.4515634
2.566691 8.536226 -11.38281 -0.2456692 -0.3926227 0.8862811
-0.5666895 9.294737 -11.32882 0.06766896 -0.4684737 0.8808821
7.196163 2.319542 -9.193838 -0.7086163 0.2290458 0.6673838
-2.790103 14.06679 -3.989206 0.2900104 -0.9456788 0.1469206
2.485127 -0.2571559 -10.92652 -0.2375127 0.4867156 0.8406519
-1.785708 12.55811 -8.284876 0.1895708 -0.7948113 0.5764875
3.930468 10.81483 -9.368654 -0.3820468 -0.6204835 0.6848654
-6.938903 7.328804 -9.071418 0.7048904 -0.2718804 0.6551417
7.935654 6.803324 -8.346533 -0.7825654 -0.2193323 0.5826532
-0.474036 3.156538 -12.39655 0.05840361 0.1453462 0.9876556
4.381571 11.83479 -7.956544 -0.4271572 -0.7224796 0.5436544
9.79775 4.64942 -4.999098 -0.9687752 -0.003942013 0.2479098
4.247679 12.4507 -7.146342 -0.4137679 -0.78407 0.4626342
-8.385967 -0.2184534 -4.642401 0.8495967 0.4828454 0.21224
4.791237 8.579279 -10.41499 -0.4681237 -0.3969279 0.7894989
9.658278 7.576315 -2.697069 -0.9548279 -0.2966315 0.0177069
-4.797728 13.30077 -3.140322 0.4907728 -0.8690766 0.06203219
0.9842586 12.96635 -7.94283 -0.08742585 -0.835635 0.542283
-8.003869 0.7755284 -6.931571 0.8113868 0.3834472 0.4411572
3.333426 11.28743 -9.229807 -0.3223426 -0.6677426 0.6709806
2.684173 13.88485 -5.231246 -0.2574175 -0.9274846 0.2711247
5.96714 11.62535 -6.579409 -0.585714 -0.7015349 0.4059409
0.3437254 14.25001 -5.168703 -0.02337254 -0.9640008 0.26487
-1.843137 13.44098 -6.78603 0.1953137 -0.8830982 0.426603
6.171831 10.44917 -7.919847 -0.6061831 -0.5839168 0.5399846
-0.7354138 14.42642 -4.229747 0.08454142 -0.9816417 0.1709746
-9.185334 7.466382 -4.851921 0.9295334 -0.2856382 0.2331921
-2.353034 14.21235 -3.834682 0.2463033 -0.9602348 0.1314683
-6.15852 11.70703 -5.735254 0.626852 -0.7097027 0.3215254
-4.914007 11.8891 -7.186268 0.5024007 -0.72791 0.4666268
5.227934 -0.2526441 -9.602474 -0.5117934 0.4862644 0.7082474
-4.020818 2.644467 -11.4123 0.4130818 0.1965533 0.8892301
-7.22338 1.240569 -8.424953 0.733338 0.3369431 0.5904954
1.61668 14.35299 -4.194543 -0.150668 -0.9742988 0.1674544
-9.102136 0.779469 -3.200885 0.9212135 0.3830531 0.06808833
7.067812 11.66666 -3.858808 -0.6957812 -0.7056659 0.1338809
-2.246366 13.94681 -5.216589 0.2356365 -0.9336807 0.2696589
2.06739 11.56982 -9.428658 -0.195739 -0.695982 0.6908657
0.1673029 7.434754 -12.11257 -0.005730291 -0.2824754 0.9592574
3.726521 2.278642 -11.54693 -0.3616521 0.2331359 0.9026935
-0.3790585 11.80394 -9.448785 0.04890585 -0.719394 0.6928784
1.246881 11.30217 -9.863188 -0.1136881 -0.6692166 0.7343188
3.259778 3.091407 -11.88871 -0.3149778 0.1518593 0.9368712
9.00092 0.1650681 -3.612753 -0.8890921 0.4444932 0.1092752
-1.742698 10.22407 -10.58534 0.1852698 -0.561407 0.8065342
8.816619 -0.09713507 -3.947464 -0.8706619 0.4707135 0.1427466
4.569693 1.362078 -10.86039 -0.4459693 0.3247923 0.8340392
7.993092 2.333062 -8.235978 -0.7883092 0.2276938 0.5715979
3.867089 12.3927 -7.551288 -0.3757089 -0.77827 0.5031288
7.972968 1.189141 -7.665043 -0.7862967 0.3420859 0.5145043
0.5415896 13.74942 -6.555423 -0.04315897 -0.9139425 0.4035425
-1.305562 12.30461 -8.7481 0.1415562 -0.7694606 0.6228099
4.531116 9.247867 -10.1975 -0.4421115 -0.4637867 0.7677495
-0.3382302 5.333775 -12.4837 0.04482302 -0.07237749 0.9963696
-6.626468 10.18573 -7.370898 0.6736467 -0.5575734 0.4850897
-7.619375 6.003773 -8.709843 0.7729375 -0.1393773 0.6189843
9.730042 1.92796 -3.031296 -0.9620044 0.2682041 0.05112967
9.367913 2.20694 -5.438276 -0.9257914 0.240306 0.2918277
-5.281627 1.053608 -10.15429 0.5391628 0.3556392 0.7634293
-4.517766 13.25517 -4.480816 0.4627767 -0.864517 0.1960818
-3.40121 12.1424 -8.081864 0.351121 -0.7532401 0.5561865
-4.990321 1.440034 -10.51613 0.5100322 0.3169967 0.7996126
-7.74259 3.657466 -8.637964 0.7852592 0.09525342 0.6117964
3.80927 7.02755 -11.49055 -0.369927 -0.241755 0.8970554
-1.319507 13.86836 -6.018466 0.1429507 -0.9258361 0.3498466
6.206838 4.493941 -10.4456 -0.6096838 0.01160588 0.7925598
-5.100058 5.092902 -11.04186 0.5210058 -0.0482902 0.852186
-2.279429 13.64268 -6.083898 0.2389429 -0.9032677 0.3563897
7.968504 2.557575 -8.353649 -0.7858504 0.2052425 0.5833649
-0.4818377 14.30633 -4.89295 0.05918376 -0.9696332 0.2372949
3.916107 0.1557932 -10.62392 -0.3806108 0.4454207 0.8103924
-7.284309 -0.1069312 -7.323619 0.7394309 0.4716932 0.4803619
-5.840783 6.100051 -10.41734 0.5950783 -0.1490051 0.7897337
-7.644748 10.90353 -3.025336 0.7754748 -0.629353 0.05053358
7.498127 6.725886 -8.918329 -0.7388127 -0.2115886 0.6398328
2.183013 13.09995 -7.380391 -0.2073013 -0.8489948 0.4860391
-9.008107 0.5242629 -2.92852 0.9118106 0.4085737 0.04085219
-7.830966 1.281065 -7.605199 0.7940966 0.3328934 0.5085199
7.924355 7.129317 -8.228668 -0.7814355 -0.2519317 0.5708669
-7.722991 1.934586 -8.131275 0.7832992 0.2675414 0.5611274
-5.003646 9.125743 -9.831545 0.5113646 -0.4515743 0.7311545
-2.676376 1.513723 -11.61116 0.2786377 0.3096277 0.9091159
4.089405 4.55879 -11.69397 -0.3979405 0.005120994 0.9173969
3.062295 11.3944 -9.247252 -0.2952295 -0.6784397 0.6727251
-3.641297 6.408086 -11.61366 0.3751296 -0.1798086 0.9093661
-9.074456 2.526511 -5.882266 0.9184456 0.208349 0.3362264
7.071233 0.449872 -8.371031 -0.6961233 0.4160128 0.5851031
-8.303631 9.687181 -4.372847 0.8413631 -0.5077182 0.1852847
2.446592 13.81905 -5.639881 -0.2336592 -0.9209054 0.3119881
1.900817 5.1031 -12.34598 -0.1790817 -0.04930998 0.9825977
-4.418703 4.737814 -11.43485 0.4528702 -0.01278138 0.8914848
8.230313 7.178237 -7.760674 -0.8120314 -0.2568237 0.5240675
1.225409 14.21832 -5.056938 -0.1115409 -0.960832 0.2536938
-9.37966 4.414406 -5.667715 0.9489659 0.01955938 0.3147715
-8.560374 6.21932 -7.235371 0.8670374 -0.160932 0.4715369
7.470276 7.264862 -8.747202 -0.7360276 -0.2654862 0.6227202
9.464058 7.604625 -4.399847 -0.9354058 -0.2994624 0.1879847
-2.373954 7.301004 -11.82529 0.2483954 -0.2691005 0.9305292
-6.061658 5.787656 -10.2997 0.6171659 -0.1177656 0.7779702
7.307189 11.13502 -4.891617 -0.7197189 -0.6525023 0.2371615
-2.457366 12.57025 -8.001156 0.2567366 -0.7960249 0.5481155
5.334084 13.04221 -3.787605 -0.5224085 -0.8432207 0.1267604
9.134944 0.7002335 -4.326686 -0.9024944 0.3909767 0.1806686
8.372417 5.914683 -7.999987 -0.8262418 -0.1304683 0.5479986
9.443638 2.092172 -5.078072 -0.9333639 0.2517828 0.2558071
-0.3675101 2.944002 -12.36868 0.04775102 0.1665999 0.9848677
9.785495 6.76794 -3.834572 -0.9675495 -0.2157939 0.1314572
4.187346 12.77969 -6.598165 -0.4077347 -0.8169689 0.4078165
-5.558227 6.459278 -10.54816 0.5668226 -0.1849277 0.8028162
4.84963 8.708984 -10.31322 -0.4739631 -0.4098985 0.7793217
-4.207253 13.62637 -2.777656 0.4317253 -0.901637 0.02576547
-1.461329 14.18661 -4.93236 0.157133 -0.9576609 0.2412359
-3.75533 11.58094 -8.558643 0.386533 -0.6970941 0.6038643
0.3409263 14.11133 -5.629881 -0.02309264 -0.9501332 0.310988
3.541496 9.545296 -10.51173 -0.3431496 -0.4935296 0.7991726
-7.282516 11.33315 -2.907168 0.7392517 -0.6723155 0.03871666
-0.5699031 8.946402 -11.50517 0.06799033 -0.4336402 0.8985174
-0.2154611 14.15496 -5.484437 0.03254612 -0.9544957 0.2964435
-9.5387 5.226789 -5.073855 0.96487 -0.06167883 0.2553855
-0.02012314 14.10121 -5.666427 0.01301231 -0.9491211 0.3146426
2.048241 14.22173 -4.484159 -0.1938242 -0.9611727 0.196416
-6.028342 2.914407 -10.2301 0.6138343 0.1695594 0.7710105
-7.846491 9.962037 -5.357245 0.7956491 -0.5352036 0.2837245
-5.67577 0.5584407 -9.598824 0.578577 0.405156 0.7078823
-8.076785 -0.1367679 -5.751836 0.8186784 0.4746768 0.3231836
-4.888778 2.267947 -10.85829 0.4998778 0.2342053 0.8338286
-8.548381 8.598639 -5.540465 0.865838 -0.3988638 0.3020465
-0.91589 12.1481 -9.010347 0.102589 -0.7538099 0.6490348
-1.410305 5.284225 -12.38074 0.1520306 -0.06742249 0.9860735
4.828828 9.518092 -9.844158 -0.4718828 -0.4908093 0.7324159
-9.610592 6.683774 -3.619797 0.9720591 -0.2073774 0.1099797
-6.10009 11.1789 -6.796014 0.6210089 -0.6568903 0.4276014
-8.897286 8.364791 -4.70411 0.9007286 -0.3754791 0.218411
0.5884216 13.5485 -6.978057 -0.04784216 -0.8938503 0.4458058
0.06618827 14.21396 -5.306025 0.004381174 -0.9603965 0.2786025
4.198881 11.84091 -8.087315 -0.4088881 -0.7230911 0.5567314
-9.341694 4.079729 -5.742465 0.9451694 0.05302711 0.3222466
-4.394463 11.2939 -8.439066 0.4504463 -0.6683897 0.5919065
-5.625765 4.732425 -10.7106 0.5735767 -0.01224246 0.8190604
-0.8422406 11.37422 -9.823328 0.09522405 -0.6764218 0.7303327
-6.378354 10.68983 -7.095693 0.6488354 -0.6079828 0.4575693
3.299689 0.5409055 -11.07969 -0.3189689 0.4069095 0.8559693
-9.410557 1.768381 -3.653226 0.9520557 0.2841619 0.1133226
-4.963714 2.123513 -10.77075 0.5073714 0.2486487 0.8250746
-9.245021 1.766553 -4.617233 0.9355021 0.2843448 0.2097234
-7.450993 7.459353 -8.411737 0.7560993 -0.2849354 0.5891737
7.947427 10.81225 -2.846831 -0.7837427 -0.6202252 0.03268312
-6.607699 11.13657 -6.023769 0.6717699 -0.652657 0.3503769
0.4552464 13.48504 -7.115039 -0.03452465 -0.8875044 0.4595039
-5.421469 6.406582 -10.65481 0.5531469 -0.1796582 0.813481
-2.689779 1.49018 -11.59899 0.2799779 0.311982 0.9078985
-1.433752 1.098779 -11.75516 0.1543752 0.3511221 0.9235159
9.057781 6.40499 -6.608424 -0.8947782 -0.179499 0.4088424
-3.058194 2.573017 -11.78354 0.3168194 0.2036983 0.9263544
-0.6726435 13.91078 -6.109288 0.07826437 -0.9300778 0.3589288
0.6207417 6.567205 -12.31329 -0.05107417 -0.1957206 0.9793288
5.047318 2.73336 -11.01124 -0.4937318 0.187664 0.8491238
-0.6714185 14.32826 -4.743696 0.07814187 -0.9718259 0.2223697
-7.520608 11.0288 -3.276842 0.7630608 -0.6418802 0.07568417
4.589584 8.262379 -10.68048 -0.4479585 -0.3652379 0.8160481
9.853261 2.361701 -2.638335 -0.9743261 0.22483 0.01183335
6.511675 0.7567053 -9.166103 -0.6401675 0.3853295 0.6646103
7.136936 6.023194 -9.493167 -0.7026936 -0.1413194 0.6973167
4.39087 7.253605 -11.16208 -0.4280869 -0.2643605 0.8642078
3.925232 13.54719 -4.880208 -0.3815232 -0.8937194 0.2360207
-6.393346 11.42558 -5.874762 0.6503345 -0.6815576 0.3354762
-2.577655 10.00938 -10.49641 0.2687655 -0.5399382 0.7976414
1.065849 3.724787 -12.43477 -0.09558491 0.08852133 0.9914774
0.8668507 14.31684 -4.801343 -0.07568512 -0.9706836 0.2281343
2.056778 13.90727 -5.645822 -0.1946778 -0.9297273 0.3125823
5.098672 13.21726 -3.534029 -0.4988672 -0.8607258 0.1014029
6.518529 10.75965 -7.114836 -0.6408528 -0.6149655 0.4594834
2.561018 12.46881 -8.197285 -0.2451018 -0.7858813 0.5677286
-2.640419 13.42723 -6.352962 0.2750419 -0.8817233 0.3832962
3.26842 12.85512 -7.21494 -0.3158421 -0.8245115 0.4694939
8.027257 1.508865 -7.783078 -0.7917258 0.3101135 0.5263078
1.679937 8.74983 -11.48644 -0.1569938 -0.413983 0.8966443
-5.870067 12.59703 -3.187993 0.5980067 -0.7987027 0.06679925
1.189645 1.194163 -11.8563 -0.1079645 0.3415838 0.9336296
2.031767 14.10346 -5.006169 -0.1921768 -0.9493459 0.2486169
8.239699 1.26218 -7.284462 -0.8129699 0.3347819 0.4764463
-1.125596 12.29673 -8.795946 0.1235596 -0.768673 0.6275945
3.724323 6.845398 -11.57205 -0.3614323 -0.2235398 0.9052053
8.614638 7.339894 -7.016536 -0.8504637 -0.2729894 0.4496536
5.702177 2.25937 -10.46997 -0.5592177 0.235063 0.7949975
7.566695 4.169521 -9.168585 -0.7456694 0.04404788 0.6648586
-4.538785 11.55296 -8.014013 0.4648784 -0.6942955 0.5494013
-3.026964 5.699588 -11.95251 0.3136965 -0.1089588 0.943251
8.486213 0.154933 -5.680923 -0.8376213 0.4455067 0.3160923
8.427956 2.275669 -7.556121 -0.8317956 0.2334331 0.503612
2.773009 9.893435 -10.58187 -0.2663009 -0.5283434 0.8061867
-5.414697 12.23393 -5.889472 0.5524697 -0.7623935 0.3369472
-4.475799 4.209779 -11.39751 0.45858 0.04002215 0.8877515
0.2754508 12.31499 -8.892266 -0.01654508 -0.7704988 0.6372266
-9.860382 5.37887 -2.538215 0.9970381 -0.076887 0.001821505
2.884489 7.319554 -11.7374 -0.2774489 -0.2709554 0.9217404
4.941365 5.844293 -11.18801 -0.4831364 -0.1234293 0.8668013
1.410672 14.44533 -3.77482 -0.1300672 -0.9835328 0.1254821
6.523992 -0.2543015 -8.452898 -0.6413992 0.4864302 0.5932898
4.075319 13.20281 -5.751078 -0.3965319 -0.8592809 0.3231077
4.567235 -0.1566129 -10.0971 -0.4457234 0.4766613 0.7577101
-0.2760276 14.31552 -4.897782 0.03860275 -0.970552 0.2377782
6.787905 11.55509 -5.19794 -0.6677905 -0.6945086 0.2677941
-0.3421332 0.3782997 -11.56922 0.04521333 0.4231701 0.9049215
-2.66458 13.33179 -6.548914 0.277458 -0.8721787 0.4028914
-8.761958 7.506987 -6.111078 0.8871956 -0.2896987 0.359108
9.290336 7.102359 -5.603759 -0.9180337 -0.2492359 0.3083759
1.358094 0.5233769 -11.56112 -0.1248094 0.4086623 0.9041116
6.71812 1.367886 -9.289154 -0.660812 0.3242114 0.6769153
4.705135 0.1718593 -10.21335 -0.4595135 0.4438141 0.769335
4.124505 4.75876 -11.6776 -0.4014505 -0.01487603 0.9157599
7.27672 9.927359 -7.03263 -0.716672 -0.5317358 0.4512629
-8.694989 8.989899 -4.333464 0.8804989 -0.4379899 0.1813464
-4.51121 13.33671 -4.09762 0.4621211 -0.8726714 0.1577621
-8.335784 3.211263 -7.688391 0.8445784 0.1398738 0.5168392
3.788641 12.00552 -8.156836 -0.3678642 -0.7395518 0.5636836
5.606359 10.66256 -8.278175 -0.5496359 -0.6052557 0.5758175
0.6221645 14.37243 -4.625412 -0.05121645 -0.9762424 0.2105412
9.394691 7.626447 -4.686923 -0.9284692 -0.3016447 0.2166923
8.015782 9.571221 -6.109552 -0.7905782 -0.4961221 0.3589553
8.917739 1.009014 -5.595164 -0.8807739 0.3600986 0.3075164
-0.2197717 13.70299 -6.668351 0.03297716 -0.9092988 0.4148351
-1.64089 14.31149 -4.197953 0.1750891 -0.9701487 0.1677953
7.899096 10.84645 -3.180767 -0.7789096 -0.6236455 0.06607673
4.393735 11.35186 -8.536392 -0.4283734 -0.6741859 0.6016392
6.849833 10.17109 -7.383011 -0.6739833 -0.5561095 0.486301
-1.595928 14.39845 -3.649618 0.1705929 -0.9788451 0.1129619
8.666848 4.130559 -7.672717 -0.8556848 0.04794407 0.5152717
-1.11416 2.615196 -12.24225 0.122416 0.1994804 0.9722252
-1.181057 6.587362 -12.23716 0.1291057 -0.1977362 0.971716
4.595446 13.16383 -5.110894 -0.4485446 -0.8553833 0.2590893
3.864573 -0.3350868 -10.35896 -0.3754573 0.4945087 0.783896
6.52026 5.729697 -10.11308 -0.641026 -0.1119697 0.7593079
2.069935 13.90604 -5.641259 -0.1959935 -0.9296042 0.312126
5.200932 7.080204 -10.76503 -0.5090931 -0.2470204 0.824503
7.327354 3.465258 -9.346375 -0.7217353 0.1144742 0.6826375
8.179233 -0.00599432 -6.205115 -0.8069233 0.4615994 0.3685116
-7.665816 8.606952 -7.373975 0.7775816 -0.3996952 0.4853975
-2.180101 12.66295 -7.988585 0.2290102 -0.8052951 0.5468586
8.200175 8.983892 -6.446594 -0.8090175 -0.4373892 0.3926593
-5.468169 6.558258 -10.58773 0.5578169 -0.1948258 0.8067734
3.495619 7.509787 -11.47147 -0.338562 -0.2899787 0.895147
-8.070556 9.767408 -5.065518 0.8180555 -0.5157408 0.2545517
6.451615 0.6293416 -9.148596 -0.6341615 0.3980659 0.6628596
-8.002437 -0.3880816 -5.554396 0.8112436 0.4998081 0.3034395
4.196972 7.13116 -11.29157 -0.4086972 -0.252116 0.8771569
-4.819611 4.474951 -11.21947 0.4929612 0.01350489 0.8699465
3.851231 10.97071 -9.268669 -0.3741231 -0.6360712 0.6748669
1.567518 14.44423 -3.598645 -0.1457519 -0.9834234 0.1078646
5.04821 3.585816 -11.15511 -0.4938211 0.1024185 0.863511
-4.580698 4.646132 -11.35154 0.4690698 -0.003613186 0.8831537
8.552782 8.351458 -6.356785 -0.8442783 -0.3741458 0.3836785
9.052341 1.341514 -5.578026 -0.8942342 0.3268487 0.3058025
-0.9864937 5.592302 -12.41105 0.1096494 -0.09823018 0.9891046
-6.166063 11.92283 -5.190874 0.6276063 -0.7312829 0.2670874
8.81462 4.945308 -7.430922 -0.8704621 -0.03353081 0.4910922
9.144639 7.10077 -6.008747 -0.903464 -0.249077 0.3488747
-3.97246 11.98221 -7.903687 0.408246 -0.7372208 0.5383685
-5.753446 1.10412 -9.822657 0.5863447 0.3505881 0.7302657
-2.185061 13.50529 -6.470507 0.2295061 -0.889529 0.3950508
2.486219 -0.3043165 -10.89873 -0.237622 0.4914317 0.8378727
-6.278712 -0.1391745 -8.572247 0.6388713 0.4749175 0.6052247
10.07851 5.118069 -3.128804 -0.9968511 -0.05080686 0.0608804
2.783696 10.8861 -9.831761 -0.2673696 -0.6276104 0.7311762
1.292683 14.10677 -5.420454 -0.1182683 -0.949677 0.2900454
-3.491347 13.23217 -6.082094 0.3601347 -0.8622169 0.3562093
7.664145 10.76136 -4.777363 -0.7554145 -0.6151358 0.2257364
-1.919366 2.188509 -12.00778 0.2029366 0.2421492 0.9487785
6.948601 5.904296 -9.700414 -0.6838602 -0.1294296 0.7180413
-2.563017 13.63894 -5.886496 0.2673016 -0.9028937 0.3366494
-8.05046 0.161407 -6.210112 0.8160459 0.4448593 0.3690112
