-5.100872 10.06192 -3.50778 0.5387323 -0.8250378 0.1705286
-2.194828 15.01092 -2.860926 0.1635234 -0.9411985 0.2956442
-1.23603 16.30517 -5.955858 -0.02925368 -0.7621828 0.6467005
-0.9561676 9.016058 -12.07734 0.3426964 -0.07911842 0.9361086
0.9435371 9.798881 -2.854271 -0.7772615 -0.5558738 -0.2947353
4.129385 18.2894 -1.866653 -0.3973996 -0.9017574 -0.1700213
6.51279 8.203407 -3.186236 -0.9571243 0.01771889 0.289135
0.8633192 9.2155 -5.629617 0.1707384 -0.1217414 0.9777666
-1.961249 12.62442 -9.421326 0.2581124 -0.7116334 0.6534187
-7.652377 7.069217 -1.939513 0.9911142 0.02834853 -0.1299579
-9.208135 2.979146 -9.951945 0.8438959 0.1064346 0.5258436
-4.60458 8.414158 -5.915186 0.628374 -0.6005078 0.4945064
11.53346 1.162682 -8.498212 -0.7603744 0.2380189 0.6042995
-6.991459 10.35586 -7.504008 0.7499019 -0.5459927 0.3735494
2.153425 9.542723 -6.293462 0.3990016 -0.472309 0.7859529
-3.207706 12.74879 -7.51817 0.4610557 -0.7181813 0.5211941
0.8451284 3.556263 -8.622947 0.4039334 0.3978483 0.8237442
-12.59785 2.730063 -3.398517 0.979449 0.01016114 0.2014361
-6.277343 6.716677 -10.2784 0.6071185 -0.0437011 0.7934088
-5.439784 8.147923 -5.107034 0.4756151 -0.3706033 0.797774
8.957104 9.152622 -5.84174 -0.6105106 -0.5246574 0.5933055
1.247076 5.11122 -14.06993 0.02496574 -0.151714 0.9881091
-2.04089 11.47652 -6.562378 0.08654195 -0.8766615 0.4732601
-1.651907 11.92488 -5.765314 0.3061853 -0.9480771 0.08602637
-5.879645 15.44915 -9.61701 0.6274445 -0.6507363 0.4276162
-7.141259 3.426767 -3.371516 0.9637893 0.1486292 0.2214034
-4.532882 7.281731 -15.03619 0.364257 0.1213619 0.923357
5.811179 10.32197 -2.285451 -0.4748555 -0.7411781 0.474518
5.715071 2.609042 -7.703384 -0.3063972 0.2944168 0.905229
-7.354049 1.035231 -9.440712 0.6685301 0.4066192 0.6226784
-8.480831 13.27437 -8.680187 0.7419609 -0.6266904 0.2382295
-8.84059 7.408599 -12.88115 0.7413055 -0.2833836 0.6084078
11.12152 5.435831 -11.22455 -0.6643175 0.09398523 0.741518
3.638218 11.1385 -2.045691 -0.2486478 -0.9278616 0.2779337
7.292697 3.61805 -7.318924 -0.905278 0.1818494 0.3839305
0.003064662 6.625527 -7.285197 0.1320059 -0.07396609 0.9884855
14.60273 5.471499 -2.968428 -0.9745709 0.05121686 0.2181477
7.988794 3.250659 -4.308809 -0.7148328 -0.2433946 0.6555709
-2.411219 10.28205 -4.932152 0.2657638 -0.8414031 0.4705425
-10.69365 1.783588 -10.08564 0.6755184 0.1927416 0.7117061
1.997293 12.47523 -5.941575 0.00633984 -0.9973376 0.07264544
1.284213 9.053684 -4.496371 -0.3107266 -0.7275981 0.6115963
1.115131 10.15702 -5.928453 -0.2538716 -0.5633937 0.7862168
7.831958 4.470516 -1.825664 -0.9909076 0.1270634 -0.04423694
-3.818324 3.6095 -9.072992 0.2379564 -0.1802289 0.9544078
4.344941 6.986717 -15.49235 -0.1273306 0.02770084 0.9914734
8.018741 11.71932 -12.21408 -0.6714025 -0.2208437 0.7074226
2.448838 9.067133 -4.75696 -0.5623524 -0.3064892 0.7680001
-1.748945 9.996971 -13.61315 0.0853729 -0.2461406 0.9654669
1.739134 10.33034 -2.125367 -0.5358321 -0.6829726 -0.4964197
1.352721 7.322712 -8.093025 0.2781657 -0.7572955 0.59087
-3.522689 12.4009 -2.72918 -0.08354452 -0.9638042 0.2531833
-9.988983 4.318446 -7.839236 0.7789125 0.07597028 0.6225141
0.506028 8.823622 -4.590407 -0.01414703 -0.922713 0.385228
1.545412 18.36053 -5.390064 -0.2273489 -0.8804755 0.4160233
-1.189283 11.0243 -3.178291 0.2286125 -0.9287173 0.2919256
7.833049 8.966842 -8.082674 -0.8650209 -0.3049101 0.3984577
9.437731 9.558592 -5.879129 -0.5443672 -0.6657214 0.5103718
-7.074368 3.955095 -2.822589 0.955308 0.1655898 0.2448811
-0.9389744 3.89076 -6.83826 0.1785522 0.2411948 0.9539099
0.6914551 7.621692 -7.5924 -0.2169401 -0.2225403 0.9504803
6.176304 14.16248 -1.824527 -0.1896851 -0.9742173 0.1221479
-2.762285 15.54035 -3.157636 -0.07337973 -0.9454166 0.3174949
-13.09028 5.547604 -3.67194 0.9058668 -0.2474581 0.3437583
-5.648696 6.999851 -2.222675 0.9362846 -0.1871382 -0.2972381
-1.230907 7.158939 -8.432646 0.3986159 -0.8215291 0.4076707
4.012208 3.563615 -11.55995 -0.4773966 0.1350003 0.8682554
5.94424 6.596777 -3.267067 -0.6416965 0.07841752 0.7629393
-2.795589 10.47539 -2.433746 0.4105103 -0.8897105 -0.1997413
-2.831897 6.698936 -11.16022 0.1337809 -0.1107084 0.9848078
-8.383376 5.416788 -3.700169 0.9896448 -0.1261226 -0.06852939
-1.089736 5.471257 -11.17185 0.4005272 -0.465666 0.7891344
-9.063542 13.86461 -6.277096 0.5036304 -0.6251874 0.5962358
3.868776 5.58336 -4.945043 -0.1560279 -0.6801568 0.7162696
-6.432198 13.78547 -7.506145 0.6043729 -0.6948011 0.3898522
3.108436 13.7778 -5.900642 -0.4399039 -0.618533 0.6510772
-9.968347 2.733912 -2.00883 0.863609 0.41804 0.2818193
-1.700324 2.692054 -8.074828 -0.08544207 0.6959652 0.7129741
3.498215 8.452045 -3.796111 -0.5894648 -0.7237591 -0.3587534
-6.893881 9.237319 -8.137094 0.3435693 -0.3835944 0.8572138
-3.036417 6.939332 -6.498357 0.7798885 0.2385008 0.578698
-9.469463 8.416233 -9.621498 0.7882456 -0.09450953 0.6080599
14.14371 6.978916 -2.541873 -0.9672372 -0.2288395 -0.1099304
4.635709 10.15118 -3.189951 -0.2803115 -0.873979 0.396971
-5.595048 8.712848 -2.721861 0.9527146 -0.02414637 0.3029057
-5.608384 2.875482 -10.65795 0.7965756 0.02857346 0.6038634
-6.066226 9.317593 -4.734556 0.3284289 -0.9167779 0.2272725
1.590923 7.056016 -10.00463 -0.08279449 -0.2994678 0.9505073
4.280151 8.622016 -2.127538 -0.6208214 -0.7754015 0.1154703
-6.681139 7.918576 -6.881635 0.6708273 -0.6180189 0.4099309
-0.04835105 10.85296 -13.51868 0.04127757 -0.4081551 0.911979
-5.29126 3.73694 -8.229005 0.8523499 0.02743316 0.522252
9.948524 10.22644 -3.723049 -0.8001311 -0.5824885 0.1431688
-5.111838 7.865095 -7.346447 0.4268885 -0.6986714 0.5741293
4.366153 6.903743 -4.07171 -0.8867292 -0.348849 0.3033409
2.817126 13.95207 -2.872619 0.07739823 -0.9875439 0.1369909
5.639801 4.870798 -4.295199 -0.9663507 0.2471497 0.07129827
9.781693 10.29873 -6.517366 -0.6439258 -0.6439926 0.4130776
-6.868767 9.312428 -5.182285 0.6856828 -0.654 0.3195669
-2.289668 13.74854 -2.816935 0.4750992 -0.8713788 -0.1223916
7.606194 9.136904 -5.319093 -0.9415162 -0.195869 0.2741945
-8.460689 8.952255 -4.055374 0.6627208 -0.7247402 0.1885547
-1.853261 18.22394 -6.463094 0.2646077 -0.9134781 0.309096
-7.691979 10.20395 -1.958522 0.7672913 -0.6047751 -0.2133334
-2.857543 17.78392 -4.010778 0.4088165 -0.9025571 0.1351282
-1.134274 10.90528 -4.028352 -0.3226309 -0.6677704 0.6708144
-0.3249496 10.7838 -6.591642 0.5909359 -0.6720537 0.4462494
6.436151 4.960481 -3.567482 -0.8855029 -0.463794 -0.02792403
-2.594603 5.203857 -8.051998 -0.1219487 0.07996701 0.9893098
6.621091 4.432931 -9.455778 -0.6750548 0.08631856 0.7327006
-12.17241 7.359823 -3.553448 0.9758803 -0.1368392 0.1700964
0.6414945 9.226475 -5.328987 -0.4657977 -0.3169251 0.8261907
8.357313 4.083307 -4.216125 -0.9260402 0.2772469 -0.2560932
-7.766923 6.005445 -3.532481 0.7728066 -0.09628129 0.6272957
-1.523343 13.89033 -12.5503 0.1184864 -0.4788265 0.8698771
-9.955693 1.960427 -3.660275 0.8470457 0.2147605 0.4862012
1.424368 13.8014 -7.097052 0.01300612 -0.8260497 0.5634473
-9.965575 0.3531408 -8.313481 0.7545406 0.1534351 0.6380644
-7.385994 14.19221 -4.383982 0.3186014 -0.918324 0.2348917
8.04301 16.76078 -3.764507 -0.6716427 -0.7163366 0.1890979
-9.122062 7.668782 -10.42255 0.5574065 -0.4118721 0.7208741
-2.392725 13.88929 -11.23958 0.4557507 -0.5785604 0.6764312
-4.432341 8.113323 -6.971525 0.5299072 -0.6331509 0.5641971
7.693154 5.813862 -8.203999 -0.5585425 -0.3152654 0.7672275
13.87616 4.511947 -3.89667 -0.9929432 0.01164805 0.1180178
-4.697291 13.58587 -2.377104 0.5236984 -0.8004169 0.2916725
7.723375 5.688832 -6.243946 -0.5384201 -0.3144999 0.7817888
2.189011 3.328982 -9.984391 -0.4356623 0.05996443 0.8981106
-0.7007227 9.316521 -6.099215 0.3494667 -0.713646 0.60711
-10.52152 7.926828 -10.4041 0.5141056 -0.3114811 0.7991714
5.406603 5.059085 -6.997283 -0.9665209 0.1688048 0.1932417
1.401278 11.40371 -4.45908 -0.4967367 -0.8588723 0.124864
-3.550302 3.661506 -5.93534 0.2379398 0.2282272 0.9440853
-11.34274 3.22012 -9.360357 0.9372427 0.01777455 0.3482242
3.257097 16.10326 -2.837003 -0.5047466 -0.8604122 -0.07015549
-0.9062843 12.87684 -4.511868 0.2119561 -0.9575452 0.1954017
-13.10411 8.183058 -6.399688 0.8831506 -0.05257545 0.466134
4.742905 14.05473 -2.202495 -0.1787779 -0.9257698 0.3331497
5.635923 2.02659 -12.5066 -0.4447816 0.207092 0.871368
3.638833 5.810614 -5.577112 -0.1292033 0.07532896 0.9887528
6.282931 11.4619 -2.072567 -0.7436965 -0.6662079 0.05552094
-3.641085 12.40119 -2.787107 0.1950483 -0.9542494 0.2266368
-2.620575 14.53754 -9.564569 0.4613909 -0.6248676 0.6298087
-2.629879 2.2294 -12.03112 0.2181892 -0.1394236 0.9658957
-1.632731 2.975242 -8.852884 0.234234 0.1734923 0.9565746
-10.60502 8.657341 -8.786908 0.5426454 -0.5411821 0.6423845
0.1332926 7.749847 -5.863939 0.6242766 -0.3811501 0.6819116
-9.284985 7.931412 -4.228342 0.9640238 -0.2280631 0.1365483
1.048053 10.65119 -9.027577 -0.2651177 -0.4765451 0.8382227
3.639455 10.26708 -2.176188 -0.8263913 -0.5205015 -0.2148383
5.853131 12.57523 -9.236338 -0.1965533 -0.7087185 0.6775581
2.683758 13.42719 -2.987946 -0.2857725 -0.8981247 0.3342246
-1.975455 9.571087 -2.31514 0.3995972 -0.8748073 0.2739238
-3.128716 5.901001 -9.182003 0.6279607 0.01619969 0.7780765
0.251835 7.765839 -9.30969 0.2381427 -0.5076779 0.8279802
10.62934 3.79136 -6.016396 -0.9833597 -0.1783057 0.03479695
0.9855115 16.53059 -6.485877 -0.1519776 -0.9454303 0.2882088
-3.351176 9.033435 -5.054728 0.92603 -0.1913926 0.3253264
7.80435 5.202926 -7.464031 -0.8324352 -0.2818682 0.4770765
-1.981254 7.197741 -7.263606 0.5003041 -0.8321492 0.2392144
-1.01392 16.36032 -5.581674 0.2123648 -0.9569759 0.1977333
-6.550103 7.676626 -5.466198 0.5265548 -0.8260543 0.2009338
3.336081 6.796023 -10.10721 -0.491371 -0.3185254 0.8106146
5.132221 4.747997 -3.279425 -0.989298 0.09862447 -0.1075302
0.2572663 2.352885 -8.372024 0.3558567 0.311958 0.880936
4.011578 16.82407 -2.649041 -0.241338 -0.9623541 -0.125022
-2.91303 7.597826 -7.138527 0.853188 -0.1528024 0.49872
4.855098 10.92714 -4.825109 -0.4928166 -0.8156542 0.3030511
8.784972 8.576208 -8.100569 -0.8583243 -0.4614142 0.224447
7.858707 12.33853 -6.152248 -0.625322 -0.6534663 0.4265609
-1.871224 12.58178 -5.421474 -0.1872846 -0.8376027 0.5131727
3.7371 15.60251 -6.544119 -0.3764181 -0.9263917 0.01038122
2.46736 3.925795 -13.63776 -0.4860994 0.3111377 0.8166399
-11.30136 2.662055 -9.490086 0.7095007 0.3917699 0.5857689
-13.81079 2.555123 -3.988653 0.9989904 0.04436248 0.007082693
-3.165529 9.018988 -6.186188 0.4882479 -0.8497427 0.1988754
-3.44909 12.23646 -10.16 0.0721024 -0.3717632 0.9255233
11.13065 9.185545 -2.242186 -0.9258111 -0.3701025 0.07679935
-1.711699 12.4313 -14.00977 0.1281015 -0.3716551 0.9194903
5.630477 5.826849 -5.061451 -0.8827063 0.296159 0.3648553
-2.089316 10.57495 -10.97723 0.4681434 -0.5904226 0.6574518
4.737272 9.640171 -12.74527 -0.5573099 -0.4965017 0.6655011
1.884198 13.51362 -6.435995 -0.1727918 -0.7643316 0.6212409
-2.754727 7.409235 -13.18654 0.2331371 -0.4079664 0.8827291
-9.796613 4.888447 -2.013304 0.8651461 -0.4887194 0.1125857
-7.418438 4.360075 -6.040352 0.9982475 -0.05708725 -0.01558784
-5.818299 6.989132 -1.791897 0.9831222 -0.176744 0.04724808
1.263787 1.286206 -14.48796 0.03773839 0.02412358 0.9989964
4.189671 7.343476 -2.858855 -0.5460061 -0.7915277 -0.2745198
1.663574 14.66882 -3.818027 -0.1177651 -0.9548311 0.2728166
1.324047 8.494011 -6.821007 -0.3929499 -0.8769802 0.2765792
10.52641 2.674405 -7.413011 -0.73761 0.445473 0.5074301
6.918318 2.844088 -10.62391 -0.4652174 0.1050982 0.8789353
-1.000172 12.81511 -9.778409 -0.1594959 -0.7371255 0.6566635
-3.401512 9.450504 -6.166857 0.5903957 -0.8019133 -0.09147681
0.163734 8.064357 -13.97543 0.1654215 -0.4790822 0.8620418
8.727219 10.35752 -11.11048 -0.5269084 -0.3368895 0.7803031
-4.138937 13.47643 -3.235274 0.4676873 -0.826297 0.3138501
-5.875377 11.4305 -3.182412 0.3345336 -0.9423627 0.006314784
-1.954929 11.56657 -5.86908 -0.09361304 -0.6235236 0.7761797
-7.233897 4.610769 -3.119409 0.9803753 0.1623199 0.1118772
3.500299 10.18868 -8.824322 -0.2072568 -0.5342165 0.8195471
-1.583686 11.0696 -4.151165 0.2211445 -0.4822139 0.8476821
-3.193452 11.19304 -3.374722 0.6543542 -0.5172969 0.5515656
-5.535055 7.18293 -7.991524 0.4693916 -0.378926 0.7975503
3.281321 9.006796 -4.191097 -0.5819067 -0.7257652 0.3669462
3.584887 10.18854 -4.989512 -0.570119 -0.8212757 -0.02169143
4.973614 14.66871 -10.30481 -0.2888383 -0.7340896 0.6145608
-4.725056 10.73441 -3.372179 0.09621405 -0.9683118 0.2304671
4.637495 11.27157 -6.288448 -0.3069953 -0.8843542 0.3516698
6.560918 16.04075 -7.782619 -0.4116534 -0.8682613 0.2768823
0.4718879 5.145627 -10.51353 0.006626032 0.1685352 0.9856734
-2.402936 5.769752 -9.948119 0.1456529 -0.6188563 0.7718822
-2.988193 6.989279 -7.633218 0.02140435 -0.7301811 0.6829183
0.4261985 15.41917 -6.886138 -0.01993778 -0.9165177 0.3994971
2.437631 18.27777 -2.554383 -0.06632243 -0.986068 0.1525496
2.320505 17.50402 -4.715495 -0.2807499 -0.9349341 0.2169738
7.065552 2.270297 -5.11673 -0.9114421 0.3488482 0.2181243
-6.405532 9.880911 -3.76257 0.7843035 -0.4719055 0.4027073
-2.026908 10.37893 -5.314499 0.2596397 -0.906426 0.3331353
0.07712753 9.629066 -3.202663 -0.2913369 -0.4879802 0.822799
-7.429308 13.22784 -8.963139 0.6234277 -0.4216602 0.658438
9.387603 1.610606 -5.68019 -0.9537973 0.3002836 -0.01002058
7.599092 15.3048 -7.877608 -0.3955141 -0.8842773 0.2482382
-2.665371 11.80367 -2.432884 0.6186821 -0.7228105 0.3078595
-7.902179 6.669822 -7.894775 0.7409803 -0.2429983 0.6260192
11.02588 6.939076 -6.755127 -0.8800892 -0.2579488 0.3986296
-0.3433512 13.03522 -7.525123 0.2413215 -0.700902 0.6711932
-1.294679 18.91321 -4.364506 0.1695856 -0.980795 0.09634247
-4.791881 13.156 -3.433585 0.5208246 -0.7860903 0.3328722
0.4929654 13.31077 -5.198742 -0.2785026 -0.9592952 0.04678836
2.98321 8.14711 -4.944583 -0.8594905 -0.308296 0.4077127
5.388979 15.05928 -6.186481 -0.4112447 -0.8263875 0.3846576
12.97025 5.495626 -3.068764 -0.9576294 0.2836508 -0.04988073
1.563495 13.25121 -2.590881 0.1030413 -0.9225159 0.3719501
-2.644696 3.081709 -7.044276 0.3592838 -0.02562645 0.9328764
-5.720229 12.94556 -9.073465 0.4853215 -0.5872266 0.647787
6.62993 14.23899 -3.481895 -0.6406373 -0.7486202 0.1707387
-8.047668 11.16737 -8.119831 0.7905723 -0.5056925 0.3453559
6.091561 -0.1835408 -14.45304 -0.2336162 0.4344579 0.8698677
-6.189095 5.549561 -5.456022 0.7070211 -0.3034049 0.6388009
8.94232 8.237371 -9.039124 -0.519082 -0.3504817 0.7795617
3.796457 10.09539 -7.093913 -0.7848969 -0.6050431 0.133641
-2.385558 12.37954 -11.14818 0.1156559 -0.7551938 0.6452178
1.718543 17.23726 -5.000781 -0.1165605 -0.8826522 0.4553446
-2.292308 18.37495 -5.092971 0.3970742 -0.916263 0.05285909
2.32027 10.733 -1.903816 -0.108319 -0.9901931 0.08823068
3.514175 7.148677 -10.36137 -0.0313836 -0.208665 0.9774835
1.738544 4.459463 -8.917534 -0.1279843 -0.6170998 0.7764071
-4.148748 8.058137 -2.234477 0.7625024 -0.6468756 0.01192106
-13.03997 5.506641 -2.74772 0.9897928 0.08276987 -0.1160142
4.649719 11.86123 -6.345836 -0.7611208 -0.5384157 0.3616679
-0.06061707 15.11196 -7.905162 0.3269602 -0.7398949 0.5879223
-6.454165 13.38143 -6.550701 0.4721278 -0.8810994 0.02755547
-10.89966 10.37887 -4.574643 0.8732368 -0.1989845 0.4448176
10.71027 5.770848 -4.484654 -0.9519588 -0.2812794 0.1210632
5.146625 5.697763 -14.28078 -0.2938252 0.2839163 0.9127203
0.8723781 9.903818 -3.567599 0.005636367 -0.9308215 0.3654306
-5.42767 13.73434 -10.42124 0.4664466 -0.7022969 0.5377793
-4.531002 14.6747 -6.637743 0.3231757 -0.9314741 0.167073
11.09565 7.590769 -3.527268 -0.9699643 0.06572025 0.2342009
10.11538 2.67126 -8.10507 -0.8959228 0.2119495 0.3903839
-5.055399 12.20029 -7.890693 0.3680439 -0.4367331 0.820858
-3.263795 3.204072 -8.159339 0.3404728 -0.3082427 0.8882931
3.158769 2.439724 -10.79781 -0.1741254 -0.1680502 0.970278
4.672808 8.160102 -4.894339 -0.8349444 -0.1793753 0.520281
4.045241 7.486833 -3.043824 -0.6999187 -0.6681221 0.2524414
0.2024376 2.794512 -9.916203 0.1806422 0.07342421 0.9808044
-0.8435777 14.03053 -5.090666 -0.182024 -0.793197 0.5811245
-3.611235 9.485032 -5.140573 0.5836422 -0.7797928 0.2264618
0.4155535 9.442646 -5.879436 -0.4556737 -0.8792872 0.1386202
13.14366 -0.06562519 -5.125648 -0.8318791 0.4661261 0.3011705
4.16582 13.35189 -3.637542 -0.1336496 -0.9909395 -0.01329419
1.988197 11.8111 -11.60044 -0.08345848 -0.7013929 0.7078719
6.079262 3.786158 -5.866625 -0.7963937 0.2056787 0.5687296
9.131187 3.179162 -9.40107 -0.4965977 0.3869572 0.7769523
6.69948 3.37729 -3.580497 -0.9095862 0.03937298 0.4136455
7.765487 7.763231 -4.811002 -0.9502618 -0.03925025 0.3089692
-8.921933 9.931213 -4.125188 0.8250908 -0.173091 0.5378332
3.316444 6.036514 -11.96708 -0.4350411 -0.006513866 0.900387
4.446679 2.899321 -8.862885 -0.4528016 0.1580295 0.8774949
1.295813 5.846933 -9.163148 0.008834564 -0.4769611 0.87888
2.535617 11.47409 -8.945795 -0.2991523 -0.5449623 0.7832778
-10.13884 4.387057 -7.410007 0.9741949 -0.03711091 0.2226364
2.199968 11.59018 -4.375432 -0.6926579 -0.538879 0.4794105
-5.220551 14.78747 -6.202759 0.4434137 -0.8690904 0.21924
13.77966 2.031332 -2.164044 -0.9242018 0.3728755 0.08255271
5.087624 8.693666 -3.760726 -0.3377053 -0.9361181 0.09817284
-1.221082 14.64293 -4.762902 0.4266677 -0.7913294 0.4378955
-4.267324 13.74783 -7.873522 0.4599929 -0.8239242 0.3309917
-0.1441387 8.310921 -7.350414 -0.09015653 -0.9604576 0.2634259
-6.203925 7.729365 -3.828604 0.8672469 -0.4621269 -0.1852611
-4.223216 10.85771 -8.013193 0.07119565 -0.8025958 0.5922593
3.897906 15.07195 -6.321011 -0.387301 -0.8814932 0.2701253
0.647704 10.94202 -8.149064 -0.483821 -0.6048107 0.6325514
5.445512 8.837545 -4.681379 -0.7131215 -0.1776767 0.6781509
-1.400897 11.6916 -3.070784 -0.1109422 -0.8255795 0.5532724
-5.078314 13.86253 -3.810691 0.1757464 -0.9750971 0.1352739
-3.256063 5.033537 -9.129658 0.3286403 0.4525479 0.8289729
2.198096 3.533836 -6.536112 -0.8016998 0.2901327 0.5225903
0.867739 14.60345 -3.764875 0.008096233 -0.9998118 0.01763084
-1.356667 9.793875 -2.17496 0.1629412 -0.935127 -0.3146231
0.8231534 5.721228 -11.46833 0.2041732 -0.2496167 0.9465753
5.967193 13.15328 -4.178944 -0.4435281 -0.8659275 0.231198
2.575234 9.304106 -2.081778 -0.6760315 -0.4120588 -0.610892
1.691002 11.87395 -8.315803 -0.1929687 -0.7779847 0.5979153
2.445958 13.03375 -5.754585 -0.1869658 -0.8975975 0.3992022
-0.2617055 9.067883 -4.073557 0.1714354 -0.9848402 -0.0264543
-5.535122 5.686541 -4.458097 0.7848312 -0.6192074 -0.02494097
-2.356383 16.5644 -2.179591 0.3824814 -0.9215613 -0.06657832
3.713353 1.902629 -8.567154 -0.5733391 -0.08551299 0.8148434
4.885796 2.658884 -6.31274 -0.3681584 0.7200587 0.5881963
0.03943855 11.40259 -11.57828 -0.08648983 -0.4920356 0.8662682
-4.899699 11.6693 -5.867576 0.3475749 -0.8648452 0.362263
10.5936 4.880208 -5.303109 -0.7472085 -0.01711987 0.6643692
-4.480274 12.67497 -2.653835 0.142348 -0.9273843 0.3459702
2.916737 2.808266 -6.559828 -0.3423283 0.521211 0.7817611
-0.9873372 9.433584 -3.52295 0.4728196 -0.8719544 0.1270318
-1.802425 9.766472 -5.108099 0.3846065 -0.3504824 0.8539554
0.1687738 10.49769 -9.229938 0.003736752 -0.8378758 0.545848
7.880731 8.540232 -6.439917 -0.9301875 -0.3503959 0.1094254
8.469471 6.185609 -4.204381 -0.8874795 -0.4599064 -0.02943394
8.070248 6.078094 -12.03717 -0.5580252 -0.2018678 0.8048958
7.285367 2.950181 -10.47437 -0.4354762 0.07729449 0.8968757
-0.941296 18.48244 -7.07472 -0.2210887 -0.8778484 0.4248551
9.354206 10.55365 -6.39386 -0.8522285 -0.2761883 0.4443271
-9.221968 7.22561 -3.255002 0.9303131 -0.2928281 -0.2208378
-0.3789262 12.2453 -3.184168 -0.2788635 -0.8315126 0.4804392
10.01677 1.55583 -8.48234 -0.8322483 -0.1602833 0.5307277
7.839452 4.286648 -6.352329 -0.6461348 -0.1768608 0.7424487
-5.331229 15.99838 -3.774123 0.5104453 -0.8340546 -0.209281
-0.7808955 9.132061 -5.218748 0.7455629 -0.5518789 0.373585
-1.210023 13.99465 -11.68764 -0.1297885 -0.8374403 0.5308943
-4.895943 13.86569 -2.599394 0.4101229 -0.9002428 0.1461578
0.9316607 7.793135 -7.526149 -0.2912668 -0.6759028 0.6769927
-1.999704 17.34212 -7.072076 0.1629056 -0.9595936 0.229438
8.665877 4.967145 -2.896729 -0.972849 0.09852426 -0.2094228
-0.5555158 10.81904 -3.753316 0.3195525 -0.9420291 -0.1023103
11.56191 1.09964 -8.937555 -0.6292126 0.2022476 0.7504581
4.90538 12.39165 -2.146951 -0.6471289 -0.7583346 0.07843971
3.737941 13.21592 -11.8892 -0.2666971 -0.5758909 0.7728016
13.42134 1.369277 -6.020744 -0.9208803 0.3851242 0.06048886
5.058179 6.945269 -11.11574 -0.5281397 0.1360287 0.8381913
-1.106125 3.176863 -11.07734 0.1442293 -0.1449397 0.978872
0.463754 13.39307 -7.271226 -0.01078821 -0.7176946 0.6962745
0.1875578 17.20113 -4.310838 -0.3656233 -0.9195535 0.144017
-9.273998 4.871619 -3.866123 0.9869974 0.04389653 0.154626
-3.680597 10.00363 -6.786543 0.7134008 -0.2463341 0.6560326
7.043157 5.160904 -5.180503 -0.8337142 0.1228388 0.5383597
-2.081875 10.5373 -6.688069 0.05769477 -0.4269469 0.9024343
-8.634019 15.16861 -3.532072 0.7029163 -0.6398218 0.3107036
-1.044468 15.37166 -7.762827 -0.1220211 -0.7479655 0.6524252
-2.808509 6.200803 -7.176357 0.8023254 -0.3936873 0.4486471
-2.924667 16.71318 -5.94854 0.4754762 -0.8704165 0.1276609
-7.89488 6.307101 -9.187582 0.6370784 0.2395973 0.7326147
7.314105 2.715335 -4.145251 -0.6439129 0.2395967 0.7266153
-8.648798 4.085634 -9.796618 0.7457813 0.327405 0.5801864
-2.039264 10.32925 -4.016315 0.8684751 -0.3985805 0.2947621
-2.006596 14.76593 -4.376228 0.3546498 -0.8770263 0.3241117
6.714567 0.4663939 -13.00812 -0.5598483 0.3367074 0.7570984
-2.317823 8.075868 -10.14722 0.3491927 -0.05439359 0.9354709
-2.593159 12.75677 -4.213702 0.3571697 -0.8744808 0.3281968
0.4533379 9.521914 -12.72816 0.1688443 -0.4609785 0.8712006
-4.792251 11.66932 -5.041462 0.3957681 -0.904399 0.1594678
4.26637 15.56017 -2.144496 -0.09650828 -0.9425249 0.3198951
-4.867718 5.173247 -7.021591 0.4371847 0.5510314 0.7107981
7.195649 5.30849 -4.582242 -0.9406925 -0.3150793 0.1257883
1.216774 10.14832 -13.72248 0.1173786 -0.5652297 0.8165401
7.408172 3.323561 -8.973792 -0.4665124 -0.1317578 0.8746462
-3.925951 5.123304 -7.928267 0.3566458 0.1955567 0.9135433
5.973022 9.010479 -2.173685 -0.6722445 -0.7402337 -0.01188989
3.194001 10.99664 -11.22494 -0.2247987 -0.3678305 0.9023116
4.673745 9.295637 -9.566675 -0.562092 -0.3104254 0.7666085
6.24821 13.43855 -9.174297 -0.6336201 -0.7209427 0.2806548
2.01987 7.94088 -8.86796 -0.2828953 -0.3029105 0.9100634
-2.37715 9.791886 -3.807988 -0.003670941 -0.9665778 0.2563471
-3.340483 13.95339 -10.69043 0.1581003 -0.7280794 0.6670118
-5.383526 7.064271 -15.0975 0.3444031 -0.2775584 0.8968545
-0.7703269 3.070965 -7.474526 0.07418267 -0.09675412 0.9925399
-7.08244 5.790836 -4.951875 0.7824926 -0.2704682 0.5608497
-8.144562 13.89567 -9.243074 0.4001535 -0.6639338 0.6317192
11.5247 5.705028 -3.779816 -0.9492028 -0.170129 0.2647079
-6.259861 5.720988 -3.622758 0.6873263 -0.1529518 0.7100623
1.190649 14.56833 -3.254481 -0.3811528 -0.924103 -0.02750117
-9.469349 3.518955 -3.22543 0.7997436 0.06428763 0.5968897
5.550785 14.54325 -2.140677 -0.4968572 -0.8669553 0.03900766
-1.380287 13.511 -4.307079 0.3741957 -0.9222533 -0.09709045
11.62224 4.489494 -3.081338 -0.9401816 0.2258316 0.255066
-11.42143 8.185387 -4.968733 0.7808329 -0.3393027 0.5245701
4.47207 6.106014 -6.90816 -0.8966714 -0.04359289 0.4405453
0.29431 16.12603 -4.522899 -0.1560704 -0.956848 0.2451203
-3.049253 9.280912 -4.761903 0.1435102 -0.1486647 0.9784189
5.110813 11.55524 -3.76092 -0.4714299 -0.7823892 0.4069655
1.351408 1.440996 -11.00454 -0.1676812 0.7055885 0.6884968
-6.968679 1.346908 -12.28207 0.5328408 0.3429386 0.7736109
-8.574812 14.33086 -3.156276 0.8243223 -0.562551 -0.06347552
4.960101 4.211996 -6.540438 -0.6042233 0.2192745 0.7660503
9.35948 10.91577 -3.096729 -0.6830587 -0.7192349 0.1270113
-5.409185 4.429051 -11.64865 0.4799723 0.3853649 0.788112
-2.027853 7.991779 -9.764336 0.02578912 -0.4359498 0.8996014
-11.12464 9.667977 -9.685965 0.7296295 -0.5103579 0.4551656
-3.063303 7.876405 -4.501159 0.6509125 -0.7135212 0.2592304
4.884265 4.280669 -4.375883 -0.9189544 0.3916734 -0.04598521
-9.938937 13.2389 -7.594028 0.7303844 -0.4257246 0.5341322
-3.051368 3.731731 -13.29914 0.1152546 0.1107048 0.9871478
-6.19628 14.4475 -9.520462 0.3799354 -0.5595148 0.7366087
-5.912484 5.542499 -8.989302 0.4397866 -0.4938286 0.7501474
4.355435 10.13894 -5.220403 -0.6420357 -0.6366225 0.4272024
-2.437819 10.14878 -4.090761 -0.1455917 -0.9358009 0.3210604
-4.95848 12.34089 -6.171536 0.4492435 -0.4901415 0.7469549
6.940114 15.02072 -3.954116 -0.5316695 -0.7631755 0.3672748
-5.39625 13.84493 -6.665292 0.727987 -0.6649967 0.1667763
13.3097 9.279536 -4.108444 -0.90203 -0.349446 0.2534351
-7.55843 3.224747 -2.904327 0.9798948 0.119897 0.1594706
-7.555633 3.513349 -10.01693 0.6624436 0.0139404 0.7489821
1.606429 13.20759 -11.09384 -0.22435 -0.5020642 0.8352237
7.553065 3.711207 -3.791562 -0.9849806 0.153868 0.0783447
-6.165273 3.876501 -9.898076 0.6024971 0.194931 0.7739504
-4.598194 4.089194 -5.261102 0.1086299 0.2973755 0.9485607
1.870956 9.229088 -5.232061 -0.6680092 -0.508742 0.5430886
2.03648 10.85198 -5.637766 -0.1239302 -0.4299476 0.8943078
6.434548 4.205188 -4.234611 -0.9510105 0.1940565 0.2406677
-8.537209 15.88896 -4.117237 0.3976313 -0.9034175 0.1603936
12.60371 5.205804 -3.411663 -0.9807841 -0.1068278 -0.1632494
-1.782207 15.23225 -9.391325 0.1921365 -0.802507 0.5648594
5.300901 9.35317 -5.419495 -0.893755 -0.02463401 0.4478787
-4.607707 9.171178 -1.904773 0.4438593 -0.7685919 -0.4607117
1.881005 10.24988 -2.988769 -0.6706448 -0.6363267 0.3812138
-3.233902 11.41099 -6.826992 0.5509779 -0.726098 0.4113454
-0.5237223 9.673269 -4.391431 0.02218432 -0.5566846 0.8304277
-0.8675799 11.13992 -5.981297 0.504028 -0.3820695 0.7745829
-1.162558 2.721589 -7.649034 -0.5076315 -0.03424902 0.8608932
-1.534739 9.107398 -11.80074 -0.1414726 -0.4335006 0.8899791
0.04314159 12.46578 -3.191602 -0.4392934 -0.8971714 0.04587954
-5.754866 1.445364 -14.95875 0.2268066 0.4399797 0.8688939
11.01228 11.034 -6.673883 -0.6524352 -0.5824081 0.4849012
-5.973359 8.247788 -9.185738 0.3476084 -0.2429407 0.9056203
-6.812162 16.94087 -4.353431 0.6008642 -0.7989739 0.02455055
1.75443 5.139985 -12.74118 0.02113333 -0.02082425 0.9995598
0.3078237 12.6987 -7.79484 -0.4205696 -0.8434318 0.3342811
2.726157 18.97788 -3.235929 -0.1270477 -0.9627982 0.238492
8.770532 7.409255 -5.54916 -0.8947791 -0.4381104 -0.08619414
-4.000373 15.98361 -4.939906 0.6222851 -0.7689425 0.1465906
4.149812 4.281654 -9.866709 -0.2633842 0.3059304 0.9148964
-1.55173 10.33856 -9.8002 0.3490022 -0.5348087 0.7695305
7.922668 4.717366 -14.06814 -0.5477529 0.1079435 0.8296475
-0.03048488 13.23291 -4.579139 -0.2604743 -0.9158764 0.3054891
-6.932039 5.641204 -12.26922 0.2966117 -0.2300147 0.9268844
-9.560957 6.898268 -1.87526 0.9296041 -0.3425114 -0.1360965
9.236389 3.376258 -2.222334 -0.9769087 0.05697445 0.2059204
-0.586903 11.72322 -2.91352 -0.114227 -0.9296966 -0.3501663
-0.8383116 8.727232 -6.114475 0.3051403 -0.8853803 0.3507008
0.05824075 4.715027 -10.43933 -0.1283482 0.5138733 0.8482105
-4.891167 4.837014 -2.943423 0.7404611 0.4767437 0.4737434
7.022601 4.679402 -6.12787 -0.4508232 0.3566017 0.818287
5.462612 2.600619 -5.435585 -0.6348457 -0.165771 0.7546462
0.4620391 12.23873 -10.48971 0.03383457 -0.8721265 0.4881091
3.682107 16.9487 -3.799554 -0.1833141 -0.9786521 -0.09292946
-3.541825 8.062962 -8.084283 0.07490747 -0.5649601 0.8217111
-5.405473 4.587142 -3.007572 0.9811678 -0.1903716 -0.03268624
-3.67064 14.69905 -9.277409 0.2072603 -0.8886142 0.4091553
-3.732952 10.2204 -8.984556 0.2312468 -0.7077562 0.6675373
4.38676 8.172415 -7.545001 -0.7152439 -0.6257651 0.3111982
-8.777088 8.801413 -8.618822 0.443787 -0.5356498 0.7184235
-6.532603 15.15775 -4.701471 0.5866109 -0.8094057 0.02738914
11.81617 3.083976 -5.6714 -0.9751607 0.1862243 0.1199261
3.095587 4.067296 -12.45653 -0.3210795 0.09271079 0.9425034
-6.020888 11.30007 -11.58734 0.2397626 -0.7361037 0.6329813
-1.776271 11.46825 -3.411268 0.361543 -0.9323497 -0.003256678
3.734597 4.5511 -14.90074 -0.09415456 0.3032272 0.9482554
10.57336 9.717508 -7.390925 -0.7863265 -0.3305732 0.5219311
-0.3028172 8.046504 -7.872258 0.3789451 -0.4876134 0.7865328
4.355453 3.66389 -9.581543 -0.3765752 -0.1895385 0.906789
-5.261469 7.731878 -9.83098 0.804834 -0.1418904 0.5762892
-9.446466 0.4211864 -9.321695 0.5598159 0.3424136 0.7545589
-0.5340509 16.21996 -5.473507 -0.07789868 -0.8302507 0.5519199
-14.10515 6.208384 -4.904918 0.9898782 -0.08977325 0.1099183
-10.76049 8.673599 -9.565327 0.555222 -0.2402902 0.7962344
0.7021559 13.25037 -3.212383 -0.3196899 -0.9254363 -0.2033863
2.018228 10.46666 -6.76823 -0.3704031 -0.627134 0.6852041
-9.926176 10.1316 -9.157839 0.6536463 -0.5350127 0.5352645
-11.17879 3.459647 -3.333797 0.8987839 0.4203063 0.1246199
7.929431 13.95468 -6.227984 -0.8077112 -0.5140458 0.2887205
4.873434 3.436274 -4.39824 -0.9359922 -0.3471445 0.05838811
-3.432488 3.083224 -8.464008 0.7310569 0.3807626 0.5661941
6.458277 5.178706 -4.24889 -0.9847578 -0.1721221 -0.02501911
-0.2554045 2.757766 -11.27877 -0.3330352 -0.1056819 0.9369733
-12.46607 8.097555 -5.712131 0.8988687 -0.2287028 0.3738049
4.088229 3.618173 -9.061796 -0.1998934 -0.07965237 0.9765747
1.821905 5.700165 -8.168317 -0.5287173 -0.5671575 0.6314985
-3.230092 12.22407 -2.561839 0.3274617 -0.939818 0.09752335
-3.870214 7.354609 -4.706513 0.9258419 -0.3761547 -0.03639208
4.868588 3.716781 -4.534139 -0.7618859 0.4257182 0.4881536
10.78934 7.613492 -4.619848 -0.8877255 -0.05641202 0.4569038
1.632713 4.210941 -6.970539 0.1429525 0.1602893 0.9766636
-4.922962 15.63867 -3.283909 0.4337662 -0.8797911 0.1944597
0.7592203 11.10278 -4.695359 0.01556656 -0.996237 -0.08526131
-5.1438 2.930628 -8.533431 0.5754296 0.2064845 0.7913564
0.401317 8.425403 -5.035362 0.7100429 -0.3459944 0.613292
3.877567 3.484143 -6.529141 -0.8249859 0.509052 0.2454876
0.1062502 4.933732 -7.019462 -0.09605882 -0.6544143 0.7500098
7.636268 5.938942 -8.558999 -0.7225474 -0.0985648 0.6842589
-0.1856046 5.936513 -12.64756 0.2991341 -0.2547015 0.9195901
5.298749 6.254786 -5.940217 -0.4065609 -0.294772 0.8647645
6.506423 11.34892 -7.061771 -0.5865087 -0.2927578 0.7551824
-9.38112 6.363133 -8.373495 0.8721158 -0.2892882 0.3946219
0.2615005 11.89548 -4.384719 -0.1912266 -0.8842139 0.4261433
2.947859 11.33895 -8.512356 0.138256 -0.5139316 0.8466166
-7.467449 4.255296 -11.75216 0.4015343 -0.04591382 0.9146924
-11.02341 4.342083 -3.646112 0.9864929 -0.0225015 -0.1622508
6.655933 11.66345 -2.60354 -0.5535172 -0.8206398 -0.1420177
-13.478 9.076877 -1.893105 0.8185266 -0.568876 -0.07996473
11.89402 8.04482 -3.886266 -0.9274989 -0.3707452 0.04789364
2.603073 9.290154 -6.880942 -0.4146516 -0.4041273 0.8153191
14.15463 2.756671 -3.328758 -0.9897813 0.1028051 0.09881333
-2.403023 2.000035 -15.86252 0.3726499 0.2958749 0.8795397
-4.139152 10.94671 -7.722747 0.5380335 -0.6349198 0.5544338
1.828233 2.302856 -8.480915 -0.3769671 0.5258892 0.7624542
-4.026357 9.293873 -14.18903 0.3647939 -0.5503987 0.7509905
3.226093 15.18551 -7.359854 -0.3846191 -0.9106715 0.1508168
-2.262196 11.97772 -5.649034 0.2805252 -0.8942045 0.348861
-0.3983699 12.98807 -4.814201 -0.05181943 -0.8749204 0.4814861
-4.849265 4.065375 -9.358093 0.4659513 -0.1687619 0.8685671
-9.060276 9.083695 -11.82848 0.7516024 -0.1457934 0.6433026
5.151252 6.394673 -3.680461 -0.8949385 -0.3228332 0.3079996
-13.02273 4.859982 -7.557716 0.9698243 0.1343581 0.2034425
6.160008 11.40549 -10.56506 -0.5819566 -0.5612689 0.5884758
-5.929426 10.23732 -6.981703 0.7449879 -0.5933693 0.3048048
1.059692 12.85131 -3.337417 0.07449269 -0.9857488 -0.1508318
-2.765448 10.89959 -6.71189 0.3469102 -0.313238 0.8840448
2.500849 13.97584 -9.835089 -0.4601457 -0.6564885 0.5977364
3.263389 8.905848 -3.845499 -0.1958989 -0.8601275 0.4709611
-9.592793 7.190198 -8.800998 0.7501656 -0.4529155 0.4817874
9.096314 4.56657 -9.231398 -0.702125 -0.07026539 0.7085783
-5.870605 3.753474 -2.728181 0.9052024 0.3770088 0.1961452
0.08448248 11.57834 -4.355527 -0.06532395 -0.9044849 0.4214734
-4.291927 13.14965 -5.351836 0.7834523 -0.603104 0.1498936
3.171526 15.15119 -6.01486 -0.2337362 -0.9190128 0.3174632
-4.689017 14.22007 -3.645386 0.652387 -0.7573481 0.02855146
9.95506 13.08498 -5.185864 -0.8485612 -0.4852428 0.2109104
9.228227 5.327104 -3.24289 -0.9263164 0.3470274 0.1466628
-1.742866 3.604563 -6.78836 0.5575902 0.2208361 0.8002028
1.377523 9.866392 -1.795 -0.6844946 -0.7231441 -0.09235637
11.70035 0.6522739 -9.055838 -0.697498 0.5109763 0.502394
-12.97685 11.03311 -4.109147 0.8955294 -0.4049832 0.1844336
-11.96969 10.66257 -6.992798 0.8958912 -0.1302987 0.4247366
4.884477 2.791909 -3.48068 -0.8508487 0.3641787 0.378722
7.831738 5.716271 -2.564909 -0.9323075 0.206843 -0.2966795
6.381603 4.120853 -4.713977 -0.4710168 0.4177823 0.7769177
1.540218 9.734979 -3.335038 -0.2730322 -0.7208995 -0.6369908
-7.860105 12.50027 -6.940008 0.6738334 -0.5003139 0.5437229
12.36713 4.773969 -7.349646 -0.7930664 0.2162122 0.5694717
10.62117 7.367764 -2.594116 -0.8284661 -0.5446305 0.1304668
-7.878444 7.798221 -11.91955 0.6664197 -0.2052146 0.7167787
-3.868774 14.77836 -8.416025 0.3449737 -0.5691328 0.7463786
0.3512167 6.36738 -7.963383 0.02052644 -0.8555337 0.5173402
-1.202467 11.49282 -6.468447 0.4935729 -0.4671982 0.7335609
-9.045838 2.1982 -5.022109 0.8708746 0.02920088 0.4906371
-9.455141 9.302953 -7.21229 0.6283036 -0.2960658 0.7194301
-3.208597 12.94794 -4.515254 0.2257477 -0.97284 0.05118858
-1.132453 9.285791 -4.359843 0.7994927 -0.5812591 0.1514897
1.076179 7.691826 -6.885215 0.007619719 -0.6731657 0.7394524
-2.633926 4.439132 -6.649875 0.622689 -0.7020504 0.3455194
-7.693932 8.891677 -6.09811 0.7462212 -0.3181545 0.5847493
-6.775429 9.887695 -3.534777 0.7236719 -0.6054432 0.3312665
2.886286 15.74203 -4.032796 -0.3236277 -0.9435125 -0.07105852
-8.044939 11.19633 -5.808979 0.896028 -0.3658064 0.2516333
6.69118 9.658365 -11.36902 -0.5312858 -0.4367264 0.7259514
4.037724 9.957324 -11.80175 -0.4964022 -0.3018804 0.8139122
-1.208378 9.832184 -3.055983 0.2630125 -0.964187 0.03417504
3.151154 4.91996 -12.69613 -0.1614119 -0.2920432 0.942686
2.01112 15.65723 -3.909482 -0.1999307 -0.9276855 0.3153211
3.663125 18.10574 -2.506905 0.04479942 -0.9681537 0.246316
-2.144596 13.32112 -1.80061 0.5961345 -0.7845473 -0.1706139
0.4368209 9.909379 -4.252584 -0.3088121 -0.1426178 0.9403698
-1.31672 13.96475 -10.65198 -0.1262442 -0.7523727 0.6465274
6.101707 2.606761 -5.340847 -0.9005034 0.3908567 0.1905906
3.268424 4.673061 -9.530811 -0.2984986 -0.1201807 0.9468132
6.949129 5.387018 -3.916967 -0.9031123 -0.1921272 0.3840252
-8.922421 6.7369 -11.68555 0.5637788 -0.08533619 0.8215055
-6.992863 6.995469 -8.562403 0.5352567 -0.3571679 0.7654615
0.9475483 16.92517 -4.200642 -0.3052825 -0.9466299 0.1034139
2.709435 10.24236 -5.744266 -0.7212159 -0.5933352 0.3574927
-3.7839 17.31097 -2.88401 0.3053479 -0.9521217 0.01506811
8.397271 4.067034 -6.845542 -0.9553859 0.2104918 0.207198
-1.461639 12.26832 -6.010196 0.2968941 -0.8162473 0.4955746
-5.151352 6.991425 -8.618498 0.4626208 -0.3814155 0.8003151
-2.821536 9.374414 -4.864788 0.1371805 -0.7778419 0.6133054
-5.342462 6.020654 -5.342682 0.4139254 -0.5315072 0.7390304
2.625125 3.413403 -7.158334 -0.6465181 0.2680164 0.71427
-0.3185358 8.899865 -5.089518 0.3404974 -0.8609811 0.3778532
-2.885684 11.0484 -11.43319 0.03682287 -0.501031 0.8646456
3.806072 8.593307 -4.751272 -0.3189932 -0.66648 0.6738306
7.962697 2.16838 -10.29338 -0.6570697 -0.1132876 0.7452686
-0.2240596 11.69176 -5.296281 -0.0258667 -0.9984162 0.0499591
-9.721674 11.14126 -6.736008 0.6666217 -0.6447827 0.3739928
10.68274 2.271497 -8.908168 -0.7005898 0.2637142 0.6630452
1.801911 13.17527 -4.96955 -0.4767254 -0.8160083 0.3268995
7.095818 16.90216 -5.532886 -0.334527 -0.899538 0.2809325
7.672366 10.29865 -7.151752 -0.5217645 -0.652653 0.5493687
-7.321111 16.97511 -4.918991 0.4390953 -0.851874 0.2854927
7.478962 7.934946 -6.911536 -0.66133 -0.4034565 0.6323493
7.279582 6.121511 -5.030671 -0.8577137 0.3960887 0.3277816
-4.639578 10.3558 -10.87875 0.4794916 -0.5526257 0.6816837
-6.740353 9.64839 -1.812531 0.7218941 -0.6629914 -0.1982708
2.177868 4.856313 -8.029387 -0.3926271 0.3851725 0.8351563
-4.460862 18.32624 -1.814379 0.5926322 -0.8011058 0.08376496
-5.184173 5.776666 -2.584455 0.7803338 -0.1496165 -0.6072019
10.65603 6.16191 -3.675542 -0.8696649 -0.288109 0.4008443
6.483832 2.384207 -5.673472 -0.537594 0.6327984 0.557278
-5.171456 6.108882 -2.430787 0.7046137 -0.7095911 3.488362E-05
3.436881 6.939594 -4.950758 -0.902943 -0.1841227 0.3883204
-1.477982 14.4141 -3.887459 0.1055231 -0.9927542 -0.05748126
-4.217595 5.148345 -4.964464 0.8518745 0.4480468 0.2712265
-3.59012 17.03082 -3.649702 0.302274 -0.9319798 0.2001098
-6.47225 3.902725 -4.212321 0.8422978 0.0510264 0.5365916
-10.56589 7.335545 -2.748543 0.9020959 -0.1566418 0.4021025
-1.523834 13.26111 -11.19482 0.1104189 -0.675988 0.7285931
1.493779 4.132434 -6.626737 -0.8953461 -0.1453976 0.4209691
4.937823 9.315284 -2.542308 -0.8171512 -0.5473698 0.1806936
2.903562 8.270609 -11.13709 -0.2210823 -0.7311075 0.645449
-4.976934 5.03962 -3.545694 0.9344479 -0.07399794 0.3483265
-2.100936 15.73114 -1.92276 0.1385456 -0.9467719 -0.2905652
0.8580122 8.478903 -5.330049 0.0177515 -0.5115693 0.8590586
-3.564248 2.821291 -6.685894 0.673771 -0.1605995 0.7212769
6.56581 7.798023 -6.215922 -0.948396 -0.1148552 0.295556
-1.692199 8.364599 -5.882401 0.0852832 -0.7208272 0.6878481
-3.812637 7.970737 -3.890592 0.3456521 -0.8496591 0.3982511
12.90692 2.113615 -3.464105 -0.9800069 0.1137375 0.1632489
-5.264103 10.22629 -6.572693 0.7981622 -0.6021698 0.01812802
-0.4385476 11.77633 -6.862031 0.09633925 -0.4471235 0.889269
-7.784369 10.45322 -11.56205 0.617571 -0.6174902 0.4871467
4.139285 8.156258 -8.415662 -0.5335581 -0.6568372 0.5328045
7.032094 11.44783 -11.65789 -0.6080341 -0.2378412 0.7574471
0.5999562 16.13954 -6.862579 -0.2608401 -0.8283529 0.4957761
-9.972636 14.25393 -6.540898 0.6709217 -0.7172831 0.1880666
12.21164 11.74811 -3.322934 -0.9727455 -0.2316591 0.01001434
-1.255436 14.97989 -3.031555 -0.2646606 -0.9641815 -0.0175682
-7.945027 0.8589754 -9.334131 0.8027208 0.106954 0.5866858
1.807662 13.53573 -13.18216 0.1734039 -0.6155977 0.7687461
1.132346 10.3566 -3.154654 0.04386948 -0.7423688 0.6685538
-5.15895 11.73082 -10.70103 0.2786361 -0.673083 0.6850702
1.830349 8.158487 -9.916841 -0.6266825 -0.1521222 0.7642826
0.7281976 1.96966 -9.375144 -0.3353662 0.01174209 0.9420146
1.392906 11.74162 -3.237436 -0.3450958 -0.8912588 0.2942219
-6.251958 9.307186 -9.651882 0.5864136 -0.285454 0.7580469
4.013577 2.526533 -8.081023 -0.618734 0.4518513 0.6426497
-2.979112 5.18409 -7.398937 0.3561481 0.03450654 0.9337922
-9.770708 3.518176 -10.11672 0.6941387 -0.1132802 0.7108721
6.076865 16.14214 -3.475318 -0.4009952 -0.911604 0.09044817
3.02342 10.50056 -8.10883 -0.4269087 -0.168955 0.8883711
8.480133 13.14351 -8.259117 -0.4007587 -0.843671 0.3572276
-6.478006 4.067745 -6.652663 0.6821629 -0.08268216 0.7265104
-2.187908 14.2285 -4.3716 0.3419166 -0.9137099 0.2196069
-1.051868 13.1852 -11.35778 -0.006433152 -0.5388128 0.842401
-1.080383 8.660603 -5.180696 -0.4114569 -0.5568997 0.7215025
5.437645 8.021545 -4.861423 -0.9318172 -0.3497481 0.09691787
4.676922 18.07639 -4.699345 -0.1166143 -0.9864288 0.1155827
7.062485 11.37511 -6.680963 -0.474661 -0.870873 0.1275817
-0.583582 3.62801 -8.643435 0.07341029 -0.03552047 0.9966691
0.003328525 10.4187 -8.113872 -0.1573237 -0.2293975 0.9605342
-2.59942 11.6535 -2.045351 0.1692003 -0.9202882 0.3527618
-3.136687 13.56989 -4.549749 0.5295305 -0.8178276 0.2252899
1.278754 8.844469 -9.833456 0.2208754 -0.1364502 0.9657098
-8.504702 12.70158 -6.158055 0.7500312 -0.5107794 0.4201874
4.901452 2.570558 -8.073894 -0.7852999 0.4984287 0.3672506
4.891092 12.54587 -5.307952 -0.6320703 -0.7415926 0.2247834
14.23755 3.037395 -5.183137 -0.9981708 0.05483778 -0.0254523
0.2033195 10.52825 -6.871059 -0.06259041 -0.721792 0.689274
-6.98321 4.98998 -2.442926 0.9432428 -0.1623228 0.2897314
5.855956 11.7336 -6.667033 -0.5027131 -0.6097027 0.612815
3.284987 9.787487 -6.467785 -0.6022491 -0.7429883 0.2920007
12.82882 10.97847 -5.258096 -0.7588489 -0.5061253 0.4098602
11.73843 9.695705 -7.189369 -0.836036 -0.08397643 0.5422102
4.240854 6.956244 -8.514729 -0.280944 -0.4793596 0.8314354
2.698342 9.786446 -3.59908 -0.2747221 -0.9497244 0.150171
-10.87046 10.82065 -5.435402 0.7410854 -0.4564487 0.4923891
2.162128 9.038858 -14.66045 -0.1801995 -0.4377183 0.8808694
8.02348 6.963911 -4.433772 -0.9940053 0.07849063 0.07610995
-9.756355 7.519932 -6.677617 0.8270415 -0.4362264 0.3545543
1.761528 3.241397 -9.12297 0.1186001 0.5112125 0.851232
3.376121 8.55165 -3.451546 -0.57906 -0.7355536 0.3516398
4.406233 -0.0009651184 -14.31187 -0.1061294 0.4834294 0.8689261
4.859656 4.503414 -3.52359 -0.677515 -0.6894535 0.2561782
11.16729 9.511805 -7.629941 -0.6557217 -0.6253051 0.4231107
-6.624723 12.59213 -2.942553 0.6148714 -0.7754612 -0.1435032
-2.114935 4.124889 -12.50571 0.3020627 -0.2127751 0.9292389
3.133698 3.415036 -7.879611 -0.8260916 0.04440311 0.5617838
-0.1197863 10.41872 -3.046846 -0.4585499 -0.886299 -0.06485412
-5.576378 15.11382 -3.085179 0.4492279 -0.8504185 -0.2738298
6.990154 9.612589 -10.02325 -0.6484013 -0.3105753 0.6950674
1.311215 1.263 -12.75364 -0.199378 0.268685 0.9423677
4.492824 12.53028 -2.54564 -0.177645 -0.9835914 0.0314661
3.181959 14.15186 -11.03798 -0.3779275 -0.4158196 0.8272031
-11.03202 13.29001 -5.890667 0.8172141 -0.5478337 0.1789953
5.203068 2.888687 -11.42228 -0.4762156 0.1133837 0.8719879
3.564105 16.50671 -5.299286 -0.01384319 -0.9232498 0.3839509
-3.430025 10.70818 -2.891245 0.8185409 -0.531918 0.2169197
-2.878825 6.602883 -7.175641 0.5388738 0.06913057 0.8395451
8.900451 9.087148 -6.688165 -0.9615379 -0.2571939 0.09641606
-4.01452 3.39903 -8.498097 0.8822324 -0.05114018 0.4680285
-7.523863 13.46899 -10.08435 0.427094 -0.4162579 0.8026955
6.136129 11.88428 -3.36194 -0.8113793 -0.5843674 -0.01335813
3.088861 9.705935 -11.02352 -0.3907298 -0.2751764 0.8784123
2.830662 14.24752 -8.08462 0.1258917 -0.7176699 0.6849096
1.290837 9.685236 -3.105018 -0.2862986 -0.8577805 0.4269026
1.89455 10.42929 -2.300653 -0.291702 -0.93753 -0.1895983
-0.3994564 12.63465 -8.858246 0.1276696 -0.568427 0.8127676
3.83661 17.26869 -6.900756 -0.5302579 -0.7763373 0.340774
-4.961864 13.97654 -5.000227 0.6202148 -0.6916278 0.3701143
-0.8572975 7.926619 -12.20483 0.08322227 -0.2579604 0.9625645
1.572773 9.637613 -2.555868 -0.6788119 -0.4091113 0.6097888
-2.208766 7.616206 -12.32535 0.03310184 -0.3242861 0.9453797
5.500162 3.569568 -7.36081 -0.7672129 0.05710674 0.6388452
5.119081 11.58927 -11.88231 -0.3131355 -0.4100516 0.8566235
-2.167897 9.750305 -9.12883 0.2306034 -0.0638524 0.9709505
4.266989 14.65221 -4.866943 -0.5229378 -0.8154039 0.2482993
-4.925867 4.769312 -5.039339 0.9900773 0.000831157 -0.1405211
7.227707 2.690009 -8.038382 -0.9080032 0.1462251 0.3926175
2.3657 10.39141 -10.70586 -0.2130368 -0.5534374 0.8051847
6.272517 3.800692 -4.658241 -0.4762302 0.1842296 0.8598048
-2.146963 7.243195 -14.10105 0.4137369 -0.2474888 0.8761113
-9.022217 2.112335 -6.100306 0.8819185 0.1354926 0.4515104
2.08881 3.30232 -10.9564 -0.1924961 -0.07599362 0.9783508
-6.772685 6.193692 -3.887892 0.9304637 0.19465 0.3104009
1.215318 12.17159 -3.746039 -0.2928272 -0.9561627 0.00228104
-5.978594 4.227067 -11.3046 0.168718 0.06008957 0.983831
3.709342 9.663412 -3.776193 -0.5694216 -0.7682772 0.2924194
6.006863 15.88385 -6.751168 -0.1140487 -0.8735012 0.4732742
-6.644728 14.49704 -7.388885 0.3238348 -0.7599254 0.5635996
-4.221381 17.25907 -6.975096 0.3503322 -0.7189906 0.6002666
-3.501395 10.72173 -10.28698 0.4242081 -0.4725196 0.7725106
12.99386 9.125145 -5.492422 -0.9077028 -0.1355881 0.3971039
4.105979 9.552786 -2.12979 -0.4585369 -0.8418831 -0.2845639
-7.698419 4.418975 -7.550503 0.8544986 -0.03250293 0.5184358
2.506305 4.750201 -6.63463 -0.257444 -0.1927433 0.9468752
1.470974 14.68381 -3.897982 -0.1525223 -0.985396 0.07570881
-4.639143 13.82076 -5.67617 0.1688263 -0.9851493 0.03128186
-4.570576 16.52896 -6.477839 0.5292412 -0.8466517 0.05553988
4.013088 5.57434 -5.2628 -0.4983972 -0.6201126 0.6058553
-2.961125 11.06052 -8.161699 0.1164032 -0.2814768 0.9524816
5.147319 11.65929 -5.260084 -0.6299754 -0.7632174 0.1436323
3.639007 14.41792 -2.184767 -0.6399065 -0.7375666 0.2156737
2.230994 10.19097 -2.428284 0.07386554 -0.9308146 0.3579498
-0.7563515 12.63241 -3.321354 0.4343782 -0.8888056 -0.146083
-4.083615 6.624324 -4.998981 0.4235407 -0.334273 0.8419471
-7.206231 10.46855 -4.08197 0.6205624 -0.7585965 0.198579
5.085033 2.202851 -7.10662 -0.7799295 0.2925161 0.5533031
-6.553207 10.82704 -7.618689 0.5908573 -0.7698227 0.2413726
7.809131 9.417057 -3.643654 -0.8421034 -0.5040141 -0.1919157
-4.456727 17.38152 -4.715267 0.2059992 -0.8805463 0.4268519
4.824836 12.29853 -4.015628 -0.3064015 -0.9198035 -0.2451114
-9.375098 7.222956 -6.008842 0.9459043 -0.2112195 0.2462751
-8.571564 16.34248 -4.413216 0.3900996 -0.850256 0.3533936
-1.354696 10.57172 -3.568145 0.7729099 -0.5060498 0.3827845
8.178261 4.768465 -2.917903 -0.8909187 -0.006191131 0.4541205
-5.707403 3.808133 -15.12706 0.5333868 0.01643977 0.8457117
4.501038 3.119237 -4.5523 -0.5943096 0.3444418 0.7267434
-1.50726 10.30495 -5.938428 -0.1891063 -0.8576373 0.4782228
0.8081948 15.34921 -10.68123 -0.03015197 -0.7004473 0.7130669
-2.120834 15.53522 -3.511662 0.2973095 -0.9472382 -0.1197782
2.681196 4.344893 -8.430356 -0.4441312 0.5541592 0.7040278
7.047557 17.61122 -2.572162 -0.2797336 -0.9555481 -0.09314951
7.444597 -0.09333372 -13.98946 -0.5365168 0.02263286 0.8435861
2.435429 14.54879 -2.288118 -0.3476585 -0.9369601 -0.03520396
0.2731601 10.6279 -14.03994 -0.03986515 -0.1862885 0.981686
2.651174 13.00438 -13.60255 -0.3336123 -0.7048602 0.6259991
-8.777326 4.696915 -11.97048 0.6829227 -0.09537189 0.7242381
6.835721 15.88124 -6.286746 -0.6429511 -0.6129483 0.4592475
0.7130027 9.601131 -4.787971 -0.7857602 -0.391087 0.4791992
-6.476364 13.12649 -7.201514 0.6275315 -0.4589008 0.6289787
-1.09531 8.339396 -6.997391 -0.2130794 -0.528037 0.8220548
-9.333935 1.280738 -6.450628 0.6458363 0.5644809 0.5140592
-3.528627 13.51164 -5.284191 0.4947993 -0.8362686 0.2362804
3.311677 16.00903 -9.799636 -0.2481647 -0.8457143 0.4724209
0.1360319 9.083094 -10.38132 -0.189335 -0.4603795 0.8672963
-4.350249 7.98806 -7.001232 0.3880919 -0.3309306 0.8601568
-1.453096 4.033685 -9.418304 -0.1814705 0.04388884 0.9824165
5.37315 8.712537 -2.964899 -0.2301879 -0.6812664 0.6949026
0.01151124 10.18439 -4.321426 0.1422549 -0.8450906 0.5153499
-2.580819 13.70814 -2.721635 0.1345717 -0.9907709 -0.01623052
-4.140835 16.54275 -6.074551 0.2275495 -0.9737439 -0.006634444
-0.3981339 6.350416 -7.924064 -0.3077518 -0.3776585 0.8733057
3.870987 10.35715 -2.068385 -0.8112366 -0.5785052 -0.08501187
9.665739 5.813155 -3.532544 -0.994319 -0.0405686 0.09840673
9.608765 12.57743 -9.522587 -0.7214629 -0.4092321 0.5585878
0.1273867 1.387391 -14.78222 0.1818333 0.4238391 0.8872976
-9.559885 6.124225 -9.69635 0.7683144 -0.3609247 0.528608
-4.800854 14.02912 -7.299923 0.5628002 -0.7059664 0.429962
-4.876112 2.803386 -5.363788 0.9761277 -0.01171883 0.2168808
-8.032456 2.649792 -6.036499 0.9601564 -0.100378 0.260814
-5.349947 9.551497 -3.667358 0.2889125 -0.8801986 0.3765368
-2.928824 6.698569 -6.347148 0.4946181 0.1165645 0.8612581
4.153887 13.76952 -3.211908 -0.4022044 -0.9057679 -0.1334765
7.40352 5.805563 -3.502493 -0.7612689 0.1440738 0.6322281
1.296093 6.282317 -7.365067 -0.02054145 0.1358887 0.9905111
-2.85236 13.95003 -9.802581 -0.09352475 -0.827029 0.5543249
3.631744 8.789557 -7.779289 -0.3968616 -0.186517 0.8987282
-8.590974 12.46419 -9.298035 0.6007928 -0.3484197 0.7194802
-7.161784 2.591316 -3.004895 0.6813564 0.6816429 0.2666766
-5.904443 11.205 -2.277887 0.9341959 -0.3565364 0.01264152
-4.164963 7.974053 -9.931069 0.4823027 -0.4476902 0.7529659
-1.144023 7.830933 -6.674952 0.4914024 -0.7551913 0.4338314
2.016449 7.230075 -6.3926 -0.6458836 -0.677271 0.3523328
