6.054756 6.079092 -3.115237 -0.809126 -0.543182 0.2242062
2.314564 7.466409 -5.398861 -0.1857607 -0.7744014 0.6048102
0.4760152 0.6741972 -7.326202 0.1206641 0.3576337 0.9260336
-0.08601141 6.292306 -6.491151 0.2143353 -0.5787176 0.7868585
-3.356212 5.304282 -4.781524 0.7593687 -0.414047 0.5019206
0.9350036 7.577676 -5.416133 0.04416607 -0.7929462 0.6076889
-1.987541 7.312664 -4.14814 0.5312568 -0.7487773 0.3963568
3.783923 8.171626 -2.596705 -0.4306538 -0.8919376 0.137784
1.511184 6.492813 -6.504302 -0.05186398 -0.6121355 0.7890503
5.281825 0.03126955 -5.170248 -0.6803042 0.4647884 0.566708
1.557398 3.616992 -7.706082 -0.05956631 -0.132832 0.989347
0.1670704 8.141094 -4.342746 0.1721549 -0.8868489 0.428791
7.031578 1.428328 -2.006513 -0.9719298 0.2319454 0.0394187
5.368889 6.675909 -3.707093 -0.6948149 -0.6426515 0.3228489
-3.261676 0.0423665 -4.664513 0.7436126 0.4629389 0.4824188
3.870924 1.834399 -7.051548 -0.4451541 0.1642669 0.880258
-0.4567196 7.708634 -4.828845 0.2761199 -0.8147725 0.5098075
-0.3244607 6.74471 -6.044655 0.2540768 -0.6541184 0.7124424
-2.006742 5.890244 -5.806136 0.5344572 -0.5117075 0.6726893
-3.825564 0.9411607 -4.455828 0.837594 0.3131399 0.4476379
7.196468 2.619033 -1.814504 -0.9994114 0.03349455 0.007417394
-4.65693 3.619011 -2.79857 0.976155 -0.1331685 0.1714283
-4.365498 3.890423 -3.739626 0.927583 -0.1784038 0.328271
1.788908 0.8787185 -7.416647 -0.09815122 0.3235469 0.9411077
1.893471 7.6471 -5.265454 -0.1155784 -0.8045168 0.5825757
7.002433 3.392725 -3.185543 -0.9670721 -0.09545413 0.2359238
-4.365745 3.125409 -3.990184 0.927624 -0.05090152 0.3700306
-3.532637 5.703704 -4.069218 0.7887729 -0.4806173 0.3832029
2.041188 0.4565134 -7.220352 -0.140198 0.3939144 0.908392
3.08048 8.216566 -3.597806 -0.3134133 -0.8994277 0.3046342
-0.1350721 1.758756 -7.522508 0.222512 0.176874 0.9587513
3.139518 8.262852 -3.386672 -0.323253 -0.907142 0.2694454
-1.845047 0.4887373 -6.384423 0.5075079 0.3885438 0.7690706
1.36755 5.204355 -7.273343 -0.02792493 -0.3973925 0.9172238
-2.938124 6.427597 -4.190986 0.6896874 -0.6012662 0.4034975
2.02134 5.347996 -7.149093 -0.13689 -0.4213327 0.8965154
5.94357 2.60877 -5.43796 -0.790595 0.03520497 0.6113266
4.441211 4.760227 -6.431554 -0.5402017 -0.3233711 0.7769256
-2.382319 -0.09828949 -5.597608 0.5970531 0.4863815 0.6379347
1.036203 8.060887 -4.686551 0.02729946 -0.8734812 0.4860919
6.414724 2.144137 -4.659613 -0.8691208 0.1126438 0.481602
0.468559 1.67825 -7.614776 0.1219069 0.1902917 0.9741293
-2.800518 6.75828 -3.887972 0.666753 -0.65638 0.3529953
3.549779 4.401273 -7.059434 -0.3916299 -0.2635455 0.8815724
3.571641 8.078579 -3.420048 -0.3952736 -0.8764299 0.2750082
-2.634078 -0.005587101 -5.419096 0.6390131 0.4709312 0.6081827
-1.83782 7.822166 -3.092871 0.5063033 -0.8336944 0.2204784
5.031822 -0.1783373 -5.280999 -0.638637 0.4997229 0.5851665
3.433794 3.753377 -7.259897 -0.372299 -0.1555629 0.9149829
6.742393 5.085971 -2.153725 -0.9237323 -0.3776619 0.06395397
-4.046008 5.722443 -2.005017 0.8743346 -0.4837404 0.03916946
5.71637 6.621097 -2.844275 -0.7527283 -0.6335161 0.1790457
-0.5343192 8.120727 -3.982337 0.2890532 -0.8834544 0.3687227
-0.7450616 7.200339 -5.379621 0.3241769 -0.7300566 0.6016034
-1.792688 0.0580194 -6.176278 0.4987814 0.4603301 0.7343795
-1.154562 3.257612 -7.271321 0.392427 -0.07293534 0.9168869
3.818778 1.38803 -6.974946 -0.436463 0.2386617 0.867491
-0.7939842 4.611382 -7.137959 0.3323307 -0.2985636 0.8946598
6.851376 3.150706 -3.758111 -0.941896 -0.05511769 0.3313518
2.123652 4.424661 -7.477182 -0.1539419 -0.2674435 0.951197
-2.444254 6.740064 -4.481552 0.6073757 -0.6533439 0.4519253
-3.68077 4.223095 -4.965217 0.8134617 -0.2338492 0.5325361
4.959662 6.457482 -4.70831 -0.6266103 -0.606247 0.4897184
0.1606884 8.610214 -2.950358 0.1732187 -0.9650358 0.1967264
-3.737816 0.5641112 -4.32518 0.8229693 0.3759815 0.4258634
0.9346892 8.697195 -2.948214 0.04421847 -0.9795325 0.196369
4.245474 7.351556 -4.25799 -0.5075788 -0.7552594 0.4146649
2.738068 3.657803 -7.508679 -0.2563446 -0.1396338 0.9564465
-2.043872 7.554474 -3.519873 0.5406453 -0.789079 0.2916455
2.559205 2.852962 -7.613926 -0.2265341 -0.005493721 0.9739878
5.868791 6.268545 -3.289845 -0.7781318 -0.5747575 0.2533075
-3.119653 6.694648 -3.295677 0.7199423 -0.6457748 0.2542795
-1.656492 4.674555 -6.709744 0.4760821 -0.3090925 0.8232908
5.456695 7.040066 -2.037566 -0.7094492 -0.7033443 0.04459438
-1.518172 4.23071 -6.929597 0.4530286 -0.2351184 0.8599328
-2.517315 6.605103 -4.572599 0.6195524 -0.6308506 0.4670999
-0.7510245 7.506826 -4.967994 0.3251707 -0.7811378 0.5329989
3.682289 8.122532 -3.082021 -0.4137148 -0.8837553 0.2186702
2.989895 8.493818 -2.547215 -0.2983159 -0.9456364 0.1295358
1.189509 8.262907 -4.294806 0.001748582 -0.9071512 0.420801
-0.8940446 4.606291 -7.101429 0.3490075 -0.2977152 0.8885716
-0.1212842 8.470016 -3.296932 0.220214 -0.9416695 0.2544886
1.748608 8.654871 -3.055813 -0.09143469 -0.9724784 0.2143021
0.1624873 8.055651 -4.510716 0.1729188 -0.8726085 0.4567861
3.13206 7.273049 -5.296683 -0.32201 -0.742175 0.5877805
-2.529042 7.516092 -1.972392 0.6215069 -0.7826821 0.03373187
1.444322 8.533634 -3.585128 -0.04072029 -0.9522725 0.3025212
0.4495285 5.513139 -7.078841 0.1250786 -0.4488565 0.8848069
6.428977 3.699092 -4.578023 -0.8714962 -0.1465154 0.4680039
2.869994 1.742936 -7.431365 -0.2783323 0.1795107 0.9435608
6.388494 5.582138 -2.974215 -0.8647489 -0.4603563 0.2007025
5.940969 4.609849 -4.982423 -0.7901614 -0.2983083 0.5354037
1.349196 7.933773 -4.904817 -0.02486604 -0.8522955 0.5224693
0.4796055 8.552021 -3.390176 0.1200657 -0.9553368 0.2700292
-2.266771 7.541999 -3.06778 0.5777951 -0.7869998 0.2162966
6.015337 1.603329 -5.136339 -0.8025562 0.2027784 0.5610566
-4.492597 0.9281049 -1.892786 0.9487661 0.3153159 0.02046418
0.4720934 5.920245 -6.855138 0.1213178 -0.5167075 0.847523
2.072407 2.827273 -7.706232 -0.1454012 -0.00121212 0.989372
1.373581 -0.1201539 -6.997367 -0.02893009 0.4900257 0.8712278
-4.23186 0.9097404 -3.456949 0.9053101 0.3183766 0.2811582
-3.554789 5.384914 -4.380211 0.7924649 -0.4274857 0.4350351
4.431059 1.444738 -6.635071 -0.5385098 0.2292103 0.8108451
1.008747 8.72141 -2.836201 0.03187557 -0.9835684 0.1777
-0.7130659 4.812599 -7.096324 0.3188443 -0.3320999 0.8877207
7.166293 3.45173 -1.8353 -0.9943822 -0.1052884 0.01088331
1.671644 7.237977 -5.802249 -0.07860734 -0.7363295 0.6720415
-2.746284 1.295647 -6.024785 0.6577139 0.2540588 0.7091308
6.412882 3.395822 -4.684496 -0.8688137 -0.09597035 0.4857495
1.43404 1.692866 -7.658531 -0.03900663 0.1878557 0.9814218
-4.278823 4.923786 -3.017629 0.9131372 -0.3506311 0.2079383
-2.284389 -0.1496229 -5.648192 0.5807315 0.4949372 0.6463653
3.513815 7.853187 -4.075058 -0.3856357 -0.8388644 0.3841764
-3.892529 2.867861 -4.942358 0.8487549 -0.00797685 0.5287264
5.670717 2.937456 -5.769861 -0.7451195 -0.01957595 0.6666436
-3.882264 0.9662287 -4.365019 0.8470441 0.3089618 0.4325032
-3.398709 6.48973 -2.946844 0.7664514 -0.6116217 0.1961405
4.719329 7.363749 -3.492985 -0.5865548 -0.7572913 0.2871641
-3.09729 4.114389 -5.752192 0.716215 -0.2157316 0.6636987
-4.698539 3.334711 -2.740727 0.9830899 -0.08578523 0.1617878
4.94391 4.537799 -6.132603 -0.6239849 -0.2862998 0.7271006
4.810319 7.343631 -3.351884 -0.6017199 -0.7539386 0.2636473
-4.662519 2.477591 -3.000296 0.9770864 0.05706818 0.2050494
2.734228 4.018063 -7.445455 -0.2557047 -0.1996771 0.9459092
7.025454 3.765342 -2.851864 -0.9709088 -0.1575571 0.1803107
0.9083387 7.887773 -4.968845 0.04861022 -0.8446289 0.5331409
0.1439917 8.242925 -4.110241 0.1760014 -0.9038209 0.39004
2.808156 8.098485 -4.126146 -0.2680259 -0.8797476 0.3926911
2.59997 6.54532 -6.260221 -0.2333284 -0.6208866 0.74837
-1.595241 6.579303 -5.518903 0.4658735 -0.6265505 0.6248171
0.3789805 8.564122 -3.296757 0.1368366 -0.9573538 0.2544593
-1.835197 2.565107 -6.939392 0.5058662 0.04248217 0.8615653
5.229448 1.762208 -6.087943 -0.6715748 0.1762986 0.719657
-3.60604 1.223065 -4.987418 0.8010067 0.2661558 0.5362363
-0.275426 8.468687 -3.153998 0.2459044 -0.9414479 0.2306662
5.145622 7.270175 -2.562474 -0.6576036 -0.7416958 0.1320788
4.958168 6.630754 -4.481887 -0.6263613 -0.6351256 0.4519812
5.100053 1.472846 -6.126004 -0.6500088 0.2245256 0.7260005
7.002983 4.268414 -2.246954 -0.9671639 -0.2414023 0.07949243
6.185112 2.232562 -5.05688 -0.8308519 0.09790631 0.5478133
-3.637683 0.4368486 -4.400099 0.8062804 0.3971918 0.4383497
0.7441714 4.092209 -7.615828 0.07597143 -0.2120348 0.9743047
5.354973 6.429881 -4.158505 -0.6924956 -0.6016468 0.3980843
0.5419002 8.643015 -3.058177 0.1096833 -0.9705025 0.2146961
-3.989278 0.4088323 -3.574899 0.8648797 0.4018613 0.3008166
2.746712 -0.01785946 -6.825119 -0.2577854 0.4729766 0.84252
-3.129807 6.965298 -2.033203 0.7216345 -0.690883 0.043867
6.710417 4.825438 -3.040244 -0.9184029 -0.3342398 0.2117071
-2.118488 3.273062 -6.748189 0.5530814 -0.07551027 0.8296983
6.669588 1.533061 -3.874137 -0.9115981 0.2144898 0.3506895
2.492314 0.3998196 -7.105977 -0.2153857 0.4033634 0.8893296
0.9287411 7.694815 -5.257492 0.04520983 -0.8124691 0.5812487
-4.335876 1.067766 -3.281209 0.922646 0.292039 0.2518682
6.335178 3.837448 -4.701679 -0.8558631 -0.1695747 0.4886131
-2.387124 6.490258 -4.878335 0.5978541 -0.6117097 0.5180557
6.403808 5.717804 -2.493273 -0.8673012 -0.4829673 0.1205455
4.403051 7.235054 -4.269552 -0.5338419 -0.7358424 0.4165918
-1.862808 6.487371 -5.398994 0.5104679 -0.6112285 0.6048324
-0.363714 8.606963 -2.026645 0.2606191 -0.9644936 0.04277399
5.798322 0.9234467 -5.125373 -0.7663869 0.3160922 0.5592287
0.2466713 5.433908 -7.085886 0.1588882 -0.4356514 0.8859811
2.076063 4.808902 -7.362565 -0.1460105 -0.3314836 0.9320942
-4.510471 1.689108 -3.223136 0.9517452 0.188482 0.2421892
0.07014537 7.749672 -4.998276 0.1883091 -0.821612 0.538046
-4.566025 2.411825 -3.378214 0.9610041 0.0680292 0.2680357
0.5831707 6.958944 -6.069845 0.1028049 -0.689824 0.7166408
0.7764392 6.035768 -6.817716 0.07059347 -0.5359612 0.841286
3.950092 8.114599 -2.405771 -0.4583487 -0.8824333 0.1059617
1.703384 8.676438 -2.973634 -0.0838973 -0.976073 0.2006056
3.741017 7.142366 -5.06551 -0.4235027 -0.7203944 0.5492515
0.7873617 0.4320552 -7.258848 0.06877305 0.3979908 0.914808
0.5686169 8.642177 -3.075224 0.1052305 -0.9703629 0.2175373
6.279114 0.2817214 -3.709007 -0.8465189 0.4230464 0.323168
-4.224309 2.18974 -4.255889 0.9040515 0.1050432 0.4143148
3.468032 8.179726 -3.229238 -0.3780053 -0.8932876 0.2432063
5.945108 5.720438 -4.021978 -0.7908514 -0.4834063 0.3753298
-0.05506968 8.201629 -4.10728 0.2091783 -0.8969381 0.3895466
-2.373797 0.2027979 -5.817002 0.5956329 0.4362004 0.6745003
2.627794 2.910308 -7.596941 -0.2379656 -0.01505133 0.971157
-3.50334 5.485267 -4.372873 0.7838901 -0.4442112 0.4338121
-2.69545 5.777048 -5.245821 0.6492416 -0.4928414 0.5793036
0.2470609 6.399185 -6.490312 0.1588232 -0.5965309 0.7867186
-0.7711301 6.447933 -6.123476 0.3285217 -0.6046556 0.7255791
-0.1541251 8.427638 -3.419466 0.2256875 -0.9346064 0.274911
6.017838 6.373181 -2.174154 -0.8029731 -0.5921968 0.06735896
7.106141 3.877111 -1.774901 -0.9843567 -0.1761852 0.0008168519
6.666189 5.180228 -2.511685 -0.9110316 -0.3933713 0.1236142
-0.4103355 1.437987 -7.382206 0.2683893 0.2303355 0.9353677
-1.20905 8.311802 -1.961276 0.4015085 -0.9153003 0.03187943
-4.236778 2.816363 -4.307996 0.9061297 0.0006061792 0.4229995
3.867414 2.178578 -7.106055 -0.444569 0.1069037 0.8893425
6.106929 2.569618 -5.213742 -0.8178216 0.04173033 0.5739569
2.258106 8.444661 -3.570999 -0.176351 -0.9374435 0.3001665
6.699129 0.5143521 -2.436005 -0.9165215 0.3842746 0.1110009
-4.02972 4.152038 -4.392156 0.8716201 -0.2220063 0.4370259
-3.136712 4.8417 -5.390173 0.7227854 -0.3369501 0.6033621
5.223321 2.23027 -6.181928 -0.6705535 0.09828826 0.7353213
1.367085 5.08149 -7.324975 -0.02784749 -0.3769149 0.9258292
0.3183917 4.335328 -7.508166 0.1469348 -0.2525547 0.956361
-4.465159 2.528732 -3.724773 0.9441932 0.0485446 0.3257954
6.309503 2.715175 -4.913564 -0.8515838 0.01747084 0.5239273
-2.934475 6.879726 -3.327158 0.6890791 -0.6766211 0.2595262
3.865525 1.088331 -6.85884 -0.4442542 0.2886117 0.8481401
-1.657828 0.7741828 -6.632864 0.4763047 0.3409695 0.8104774
-0.01337385 8.326301 -3.821432 0.202229 -0.9177168 0.3419054
6.138824 0.1579058 -3.896329 -0.8231373 0.4436823 0.354388
-3.725903 0.1354306 -3.898043 0.8209839 0.4474282 0.3546737
4.659377 4.769568 -6.267988 -0.5765629 -0.324928 0.7496646
-1.951707 5.159179 -6.30817 0.5252846 -0.3898632 0.7563616
1.785081 4.895673 -7.369041 -0.09751356 -0.3459455 0.9331735
5.564655 5.330409 -5.033071 -0.7274425 -0.4184015 0.5438452
7.183937 2.833769 -2.20853 -0.9973228 -0.002294898 0.0730883
-1.584108 1.802958 -6.986739 0.4640181 0.169507 0.8694565
7.191863 2.59262 -1.98419 -0.9986439 0.03789667 0.03569835
-1.72476 7.446954 -4.227046 0.4874601 -0.7711589 0.4095075
0.1645589 8.650502 -2.735975 0.1725735 -0.9717504 0.1609959
-4.227429 4.877683 -3.289524 0.9045715 -0.3429471 0.253254
-1.900029 7.199463 -4.455167 0.5166715 -0.7299106 0.4475278
-2.843984 2.249342 -6.165514 0.6739974 0.09510957 0.7325857
-0.9638729 7.672571 -4.557508 0.3606455 -0.808762 0.4645847
5.016859 0.7659762 -5.918805 -0.6361431 0.3423373 0.6914674
-1.432501 7.410089 -4.598608 0.4387501 -0.7650149 0.4714346
1.912271 4.82763 -7.379108 -0.1187118 -0.3346049 0.9348513
-2.606504 5.878187 -5.256835 0.6344174 -0.5096979 0.5811391
5.090626 7.315189 -2.580128 -0.6484376 -0.7491982 0.1350213
1.101049 8.719417 -2.859537 0.01649191 -0.9832361 0.1815895
2.502239 6.422514 -6.388016 -0.2170398 -0.600419 0.7696693
4.72016 3.749034 -6.53921 -0.5866935 -0.154839 0.7948684
-0.261611 8.581557 -2.587408 0.2436018 -0.9602595 0.1362347
7.077829 3.654286 -2.638959 -0.9796382 -0.1390477 0.1448268
0.2269995 4.000566 -7.571684 0.1621668 -0.1967609 0.9669473
-0.5025568 6.510638 -6.183671 0.2837595 -0.6151065 0.7356117
0.4974019 8.662824 -2.939518 0.1170996 -0.9738039 0.1949196
1.984991 1.680009 -7.608168 -0.1308319 0.1899985 0.9730281
5.563271 3.043511 -5.88241 -0.7272118 -0.03725191 0.6854016
6.001135 4.763319 -4.798633 -0.8001892 -0.3238864 0.5047721
-1.795309 4.699655 -6.617166 0.4992183 -0.3132758 0.807861
2.321981 6.801372 -6.116245 -0.1869968 -0.6635619 0.7243741
-4.278168 5.101124 -2.656652 0.9130279 -0.3801873 0.1477754
-4.778079 2.535556 -2.196215 0.9963466 0.04740731 0.07103559
-4.582976 1.965394 -3.121606 0.9638293 0.1424343 0.2252676
2.609415 7.346989 -5.446944 -0.2349025 -0.7544983 0.612824
0.6854565 7.025814 -6.018102 0.08575726 -0.700969 0.7080171
-3.255938 1.095704 -5.399246 0.7426563 0.2873826 0.6048743
6.48544 3.467368 -4.534965 -0.8809068 -0.1078947 0.4608275
1.456619 8.550904 -3.52809 -0.04276976 -0.9551508 0.293015
-2.605498 2.740763 -6.408093 0.6342497 0.0132062 0.7730155
3.715411 7.868162 -3.816648 -0.4192351 -0.8413604 0.3411081
3.314157 8.407335 -2.328587 -0.3523595 -0.9312226 0.0930979
1.579152 8.531758 -3.567793 -0.06319195 -0.9519597 0.2996322
5.430322 6.655946 -3.611169 -0.7050536 -0.6393242 0.3068615
6.428823 2.697165 -4.710123 -0.8714705 0.02047257 0.4900205
-4.733622 2.99926 -2.64178 0.988937 -0.02987671 0.1452966
2.631828 4.611847 -7.31429 -0.238638 -0.2986412 0.9240484
5.021149 4.235149 -6.174109 -0.6368581 -0.2358582 0.7340182
-3.42261 1.364045 -5.307184 0.770435 0.2426592 0.5895307
0.2117362 8.57131 -3.164909 0.1647106 -0.9585516 0.2324846
1.949535 3.874527 -7.628854 -0.1249224 -0.1757546 0.9764757
2.746624 1.056547 -7.292517 -0.2577706 0.2939089 0.9204194
2.348775 5.599936 -6.961557 -0.1914626 -0.4633227 0.8652596
6.819108 1.418866 -3.339218 -0.9365181 0.2335224 0.2615362
2.070986 1.962672 -7.644213 -0.1451642 0.142888 0.9790354
4.0034 8.022836 -2.805105 -0.4672333 -0.8671394 0.1725176
-0.05570471 8.539141 -3.079441 0.2092841 -0.9531901 0.21824
-1.227706 4.002283 -7.128027 0.4046177 -0.1970472 0.8930044
6.748572 3.855585 -3.804923 -0.924762 -0.1725974 0.3391538
-0.6920111 8.436358 -2.706379 0.3153352 -0.9360598 0.1560631
-2.68602 2.674821 -6.339221 0.64767 0.02419647 0.7615367
-2.845588 7.060668 -3.054504 0.6742647 -0.706778 0.214084
-2.528916 0.4399652 -5.823471 0.621486 0.3966724 0.6755784
2.048539 8.694506 -2.647592 -0.1414231 -0.9790842 0.1462653
5.724678 0.7434871 -5.118939 -0.7541128 0.3460854 0.5581565
2.429628 2.765782 -7.642399 -0.2049381 0.009036343 0.9787332
4.846351 7.488304 -2.724501 -0.607725 -0.7780507 0.1590834
-4.144699 0.09464121 -1.851319 0.8907832 0.4542265 0.01355301
-0.3067966 2.573959 -7.572502 0.2511328 0.04100681 0.9670836
2.721457 8.402452 -3.357886 -0.2535762 -0.930409 0.2646477
3.325043 2.670957 -7.379098 -0.3541738 0.02484047 0.9348497
2.355435 8.299647 -3.923701 -0.1925725 -0.9132746 0.3589502
5.103934 2.823844 -6.326236 -0.6506557 -0.0006406704 0.7593727
3.150579 8.335931 -3.100318 -0.3250964 -0.9193218 0.2217197
6.505365 5.13872 -3.343731 -0.8842277 -0.3864534 0.2622884
0.4887607 7.854671 -4.955315 0.1185399 -0.8391119 0.5308858
4.853652 7.265913 -3.468439 -0.6089419 -0.7409855 0.2830731
5.115804 6.261458 -4.740327 -0.652634 -0.5735765 0.4950545
6.50938 5.568554 -2.275892 -0.8848968 -0.4580923 0.0843155
-3.395333 5.198441 -4.807423 0.7658889 -0.3964068 0.506237
5.98776 2.771251 -5.385935 -0.7979599 0.008124788 0.6026558
0.0281409 4.527718 -7.401203 0.1953099 -0.2846197 0.9385338
-1.179566 8.237089 -2.766398 0.3965943 -0.9028482 0.1660663
7.001421 3.275562 -3.2315 -0.9669034 -0.07592697 0.2435833
-0.7218438 7.758782 -4.58335 0.3203073 -0.8231304 0.4688916
-0.5741456 7.122611 -5.556812 0.2956909 -0.7171019 0.6311352
2.532552 8.633045 -2.427883 -0.222092 -0.9688409 0.1096471
1.760363 7.865726 -4.967913 -0.09339385 -0.8409544 0.5329854
-3.346554 6.196893 -3.751274 0.757759 -0.5628155 0.3302122
5.006869 5.953035 -5.189333 -0.6344783 -0.5221725 0.5698888
-4.449894 3.431868 -3.694661 0.941649 -0.1019779 0.3207767
4.511832 7.502449 -3.532508 -0.551972 -0.7804083 0.2937513
-1.544814 3.361634 -7.077789 0.457469 -0.09027243 0.8846316
2.451808 5.141008 -7.159424 -0.2086347 -0.3868347 0.8982374
6.634905 4.873096 -3.268868 -0.9058174 -0.3421828 0.2498113
1.40329 8.069667 -4.668217 -0.03388171 -0.8749447 0.483036
1.994942 8.617566 -3.095254 -0.1324902 -0.9662611 0.2208754
-3.237986 6.145925 -4.059652 0.7396643 -0.5543208 0.3816087
0.6281902 6.535737 -6.446145 0.09530165 -0.6192896 0.7793574
4.003638 8.052572 -2.641665 -0.4672731 -0.8720954 0.1452775
-1.282296 6.941019 -5.355443 0.4137162 -0.6868366 0.5975738
6.751166 3.602962 -3.908113 -0.9251944 -0.1304937 0.3563521
-4.535571 3.117422 -3.506306 0.9559286 -0.04957028 0.2893842
3.470258 3.782826 -7.239817 -0.3783764 -0.160471 0.9116361
0.4613704 8.277757 -4.150614 0.1231049 -0.9096261 0.3967689
4.799642 5.481571 -5.764824 -0.5999403 -0.4435952 0.665804
-4.028539 5.744423 -2.101857 0.8714231 -0.487404 0.05530944
4.788158 5.795921 -5.547435 -0.5980263 -0.4959869 0.6295725
-0.421409 2.854886 -7.546662 0.2702348 -0.005814393 0.9627769
2.289364 7.657077 -5.148753 -0.1815607 -0.8061796 0.5631254
6.608871 0.9304402 -3.551484 -0.9014785 0.3149266 0.2969139
-4.609426 1.457329 -2.397456 0.9682376 0.2271119 0.104576
2.603942 6.901638 -5.937634 -0.2339903 -0.6802731 0.6946058
-3.722777 2.403775 -5.174852 0.820463 0.06937084 0.5674753
2.385906 4.556221 -7.389534 -0.197651 -0.2893702 0.936589
0.542789 8.714773 -2.67538 0.1095352 -0.9824623 0.1508966
0.7251198 6.45962 -6.51633 0.07914671 -0.6066036 0.791055
-0.3702821 6.809934 -5.966981 0.2617137 -0.664989 0.6994967
6.672091 4.38529 -3.668972 -0.9120151 -0.2608818 0.3164953
3.015549 8.489079 -2.52188 -0.3025915 -0.9448465 0.1253134
-2.07982 7.83884 -2.002418 0.5466368 -0.8364735 0.0387363
6.235368 5.330782 -3.853517 -0.839228 -0.4184637 0.3472528
5.738037 0.8978596 -5.192221 -0.7563396 0.3203568 0.57037
-2.886945 1.265221 -5.878473 0.6811574 0.2591299 0.6847455
1.06519 8.098746 -4.618977 0.02246841 -0.8797911 0.4748293
-2.488721 4.103879 -6.324667 0.6147869 -0.2139799 0.7591112
0.3283983 6.914128 -6.068654 0.145267 -0.6823547 0.7164423
4.632271 2.170821 -6.648328 -0.5720451 0.1081965 0.8130547
2.079964 8.286424 -4.081681 -0.1466607 -0.9110707 0.3852802
3.201776 6.895923 -5.691702 -0.3336293 -0.6793205 0.653617
3.561492 0.7843285 -6.896344 -0.393582 0.3392786 0.8543906
-4.39205 1.889462 -3.73547 0.9320083 0.1550896 0.3275784
4.829546 7.529931 -2.571836 -0.6049243 -0.7849886 0.1336393
6.428296 5.484966 -3.020149 -0.8713827 -0.444161 0.2083582
2.305383 6.620532 -6.279333 -0.1842306 -0.6334221 0.7515554
6.895712 3.565117 -3.503108 -0.9492854 -0.1241862 0.2888512
3.626469 1.64702 -7.130631 -0.4044115 0.1954967 0.8934385
2.560718 6.013245 -6.664041 -0.2267863 -0.5322075 0.8156735
1.315259 5.802217 -6.975102 -0.0192099 -0.4970363 0.8675171
2.442493 0.6602988 -7.228196 -0.2070822 0.3599502 0.9096993
-4.61235 3.185421 -3.213278 0.968725 -0.0609035 0.2405464
-1.655408 8.084749 -2.129251 0.4759014 -0.8774582 0.05987494
0.2968271 3.654249 -7.642674 0.1505288 -0.1390415 0.9787791
3.499218 7.299361 -5.033267 -0.3832031 -0.7465604 0.5438778
-4.515204 2.541058 -3.575167 0.9525341 0.04649032 0.3008612
-4.706017 2.618285 -2.8084 0.9843362 0.03361917 0.1730667
-1.297872 5.481297 -6.532157 0.4163119 -0.4435495 0.7936928
-1.234584 -0.09950519 -6.412122 0.405764 0.4865841 0.7736869
0.6202165 4.575399 -7.478102 0.09663061 -0.2925666 0.9513503
0.2304825 6.811171 -6.143853 0.1615863 -0.6651952 0.7289754
1.067761 1.345879 -7.584592 0.02203987 0.2456868 0.9690987
-0.6325849 8.524104 -2.093763 0.3054308 -0.9506841 0.05396041
0.5639703 8.70675 -2.740384 0.1060049 -0.9811249 0.1617305
6.913354 3.604542 -3.425923 -0.9522257 -0.1307569 0.2759871
-4.133638 1.427031 -4.138952 0.8889398 0.2321616 0.3948253
1.655345 0.5071499 -7.287552 -0.07589083 0.3854751 0.9195921
-1.035783 6.422404 -6.015463 0.3726305 -0.6004007 0.7075772
-3.988862 4.666916 -4.150044 0.8648103 -0.3078193 0.3966739
3.066909 8.353857 -3.145165 -0.3111515 -0.9223095 0.2291942
5.61116 2.644794 -5.83337 -0.7351933 0.02920103 0.6772283
-1.623759 2.410726 -7.048151 0.4706265 0.06821235 0.8796918
3.237003 4.532014 -7.147697 -0.3395005 -0.2853358 0.8962829
5.283417 3.227324 -6.14719 -0.6805695 -0.06788743 0.7295316
1.133575 8.54345 -3.569363 0.01107079 -0.9539083 0.299894
-3.579701 6.265131 -2.903811 0.7966169 -0.5741885 0.1889683
-4.040014 0.4127548 -3.427534 0.8733357 0.4012075 0.2762555
-2.786295 2.801093 -6.254317 0.6643825 0.003151138 0.7473861
-2.416444 7.473629 -2.894754 0.6027407 -0.7756048 0.1874591
4.358526 2.301814 -6.844958 -0.526421 0.08636431 0.8458263
4.322421 7.856964 -2.707804 -0.5204035 -0.839494 0.1563006
1.362029 2.283543 -7.743773 -0.0270048 0.08940945 0.9956288
1.520055 3.953616 -7.653237 -0.05334243 -0.1889361 0.9805395
-4.451744 4.508012 -2.869277 0.9419572 -0.2813354 0.1832127
-2.249048 7.169564 -4.047137 0.5748414 -0.7249274 0.3795229
-1.336015 4.75204 -6.852897 0.4226692 -0.3220067 0.8471496
-4.767798 2.526025 -2.316771 0.9946331 0.04899582 0.09112847
2.360071 8.677789 -2.353562 -0.1933452 -0.9762982 0.09726033
-2.883756 5.691278 -5.098468 0.680626 -0.4785464 0.5547447
-4.301291 4.646508 -3.319087 0.9168817 -0.3044181 0.258181
2.697556 8.163465 -4.051383 -0.2495926 -0.8905775 0.3802305
4.916917 3.717197 -6.393804 -0.6194862 -0.1495329 0.770634
-2.606234 2.395427 -6.388692 0.6343725 0.07076214 0.769782
-4.524848 3.565665 -3.404042 0.9541414 -0.1242776 0.2723404
0.9307243 4.917465 -7.384992 0.0448793 -0.3495776 0.9358319
1.471506 8.589588 -3.394233 -0.04525093 -0.9615981 0.2707056
3.271801 7.453533 -4.96969 -0.3453 -0.7722555 0.5332816
4.712271 0.7723999 -6.182629 -0.5853785 0.3412666 0.735438
4.202575 1.047495 -6.652906 -0.5004291 0.2954175 0.8138177
-0.05101907 8.667282 -2.264211 0.2085032 -0.974547 0.08236846
-4.630281 1.464165 -2.181737 0.9717136 0.2259725 0.06862289
4.552563 0.7259526 -6.283901 -0.5587605 0.3490079 0.7523166
-0.813699 3.946366 -7.30862 0.3356165 -0.1877277 0.9231034
-4.79442 2.598675 -1.903946 0.99907 0.03688744 0.02232429
4.484006 7.827971 -2.138152 -0.5473343 -0.8346618 0.06135856
3.97195 5.551531 -6.336731 -0.4619916 -0.4552552 0.7611219
0.1346208 8.695496 -2.356095 0.1775632 -0.9792495 0.09768248
-0.786146 7.81048 -4.44401 0.3310244 -0.8317468 0.4456683
1.011421 8.63604 -3.232228 0.0314298 -0.96934 0.2437047
-1.654687 5.415256 -6.365151 0.4757813 -0.4325427 0.7658584
2.706539 8.602705 -2.309134 -0.2510898 -0.9637841 0.0898556
6.630823 1.01565 -3.57291 -0.9051372 0.300725 0.3004849
-1.412581 0.02634525 -6.39276 0.4354302 0.4656092 0.77046
5.332644 1.77565 -5.992629 -0.6887739 0.1740583 0.7037715
4.275206 7.271456 -4.363771 -0.5125343 -0.7419094 0.4322951
-3.237598 1.61653 -5.624787 0.7395997 0.2005783 0.6424646
3.34361 6.619462 -5.889348 -0.3572683 -0.6332438 0.6865579
3.01439 8.387196 -3.079322 -0.3023984 -0.9278659 0.2182204
6.600966 4.229492 -3.970658 -0.9001611 -0.2349153 0.3667762
-2.534361 7.396467 -2.823798 0.6223936 -0.7627447 0.1756328
-0.7746716 7.88632 -4.30635 0.329112 -0.8443868 0.4227249
5.153065 0.7044265 -5.757184 -0.6588441 0.3525956 0.6645306
-3.753361 4.562267 -4.673226 0.8255602 -0.2903779 0.483871
1.879681 3.779917 -7.653587 -0.1132801 -0.1599862 0.9805978
6.025846 5.646618 -3.942888 -0.8043075 -0.471103 0.3621482
0.941005 0.2341294 -7.177975 0.04316584 0.4309784 0.9013292
0.9715712 8.720721 -2.832685 0.03807148 -0.9834536 0.1771141
-0.1124412 4.363933 -7.417457 0.2187402 -0.2573222 0.9412428
-0.2867129 8.36945 -3.500115 0.2477855 -0.9249082 0.2883525
1.09708 8.714246 -2.886814 0.01715331 -0.9823743 0.1861357
5.986768 5.492112 -4.20858 -0.7977946 -0.445352 0.4064299
0.8077354 6.384099 -6.580751 0.06537744 -0.5940165 0.8017919
4.769284 6.81479 -4.472196 -0.5948808 -0.6657984 0.450366
5.53864 1.815307 -5.790796 -0.7231066 0.1674487 0.6701326
-3.191686 6.553941 -3.434566 0.7319476 -0.6223235 0.2774279
-3.077924 4.755332 -5.505486 0.7129874 -0.3225554 0.622581
1.912382 6.375443 -6.550308 -0.1187304 -0.5925738 0.7967179
-0.4576502 5.531771 -6.859056 0.2762751 -0.4519618 0.8481761
3.953413 6.081532 -5.986768 -0.4589021 -0.5435886 0.7027946
2.008404 4.855003 -7.356165 -0.134734 -0.3391673 0.9310276
4.522419 7.702494 -2.829613 -0.5537365 -0.8137491 0.1766022
-0.6425705 3.542273 -7.434208 0.3070951 -0.1203788 0.9440347
-3.736481 3.075875 -5.170835 0.8227469 -0.04264582 0.566806
4.350954 7.504838 -3.80071 -0.525159 -0.7808064 0.3384516
5.6862 6.793384 -2.063648 -0.7477 -0.6622306 0.0489414
-1.137999 8.213415 -2.972014 0.3896665 -0.8989025 0.2003356
0.5170172 3.918329 -7.628942 0.1138305 -0.1830549 0.9764904
2.278499 1.991883 -7.613891 -0.1797499 0.1380195 0.9739818
2.221423 8.614663 -2.944126 -0.1702371 -0.9657773 0.1956876
3.929712 1.776543 -7.010217 -0.4549519 0.1739095 0.8733695
3.515631 2.712128 -7.304096 -0.3859386 0.01797863 0.9223493
-2.021208 7.831745 -2.481498 0.5368679 -0.8352909 0.118583
1.432003 -0.03584218 -7.041654 -0.0386672 0.4759737 0.8786091
-0.9700406 5.67638 -6.579576 0.3616734 -0.4760634 0.8015959
-0.1867778 8.649383 -2.078448 0.2311295 -0.9715638 0.0514079
1.273628 6.278947 -6.672068 -0.0122713 -0.5764912 0.8170112
-4.577364 1.238821 -2.119195 0.962894 0.2635298 0.05819918
6.494609 5.629353 -2.043223 -0.8824348 -0.4682255 0.04553702
5.648721 5.343059 -4.907364 -0.7414535 -0.4205098 0.5228941
4.655595 3.613037 -6.61045 -0.5759324 -0.1321729 0.8067417
-0.8463333 8.339805 -2.929433 0.3410555 -0.9199674 0.1932387
-4.071674 1.705297 -4.409485 0.8786125 0.1857839 0.4399142
1.251006 4.786394 -7.438394 -0.008501072 -0.3277324 0.9447324
0.5333964 8.170969 -4.401116 0.1111006 -0.8918281 0.4385194
2.699682 5.050166 -7.134449 -0.2499471 -0.3716944 0.8940748
-2.191563 0.02700543 -5.856133 0.5652605 0.4654991 0.6810221
1.114933 1.646196 -7.653447 0.01417778 0.1956341 0.9805745
3.642349 0.138145 -6.549392 -0.4070581 0.4469758 0.7965653
1.765544 0.6987901 -7.353962 -0.09425728 0.353535 0.9306603
3.991764 4.941987 -6.638596 -0.465294 -0.3536645 0.8114327
4.256949 7.725742 -3.37896 -0.5094916 -0.8176238 0.26816
-2.211584 2.689365 -6.703967 0.5685974 0.0217725 0.8223278
3.20064 7.000036 -5.581133 -0.33344 -0.6966727 0.6351889
5.54354 6.37355 -3.892719 -0.7239234 -0.5922585 0.3537865
7.145062 2.411475 -2.469529 -0.9908438 0.06808746 0.1165882
7.107991 3.774289 -2.200083 -0.9846653 -0.1590481 0.07168026
-1.891728 3.003167 -6.908839 0.515288 -0.03052779 0.8564732
-2.144723 5.447224 -6.002082 0.5574539 -0.4378706 0.7053471
-1.977011 2.345796 -6.837715 0.5295018 0.079034 0.8446192
-0.1721113 5.752372 -6.821584 0.2286853 -0.4887287 0.8419307
6.307175 -0.0935297 -2.965034 -0.8511959 0.4855883 0.1991722
2.201342 8.489957 -3.45787 -0.1668903 -0.9449928 0.2813115
5.427844 1.874232 -5.921007 -0.7046407 0.157628 0.6918344
0.4038147 8.36077 -3.930082 0.1326976 -0.9234617 0.3600137
-0.4611931 3.882358 -7.43673 0.2768655 -0.1770597 0.9444551
0.1952193 8.257565 -4.0988 0.1674635 -0.9062608 0.3881332
7.054824 3.893184 -2.524529 -0.9758039 -0.178864 0.1257548
-3.166995 6.72679 -3.060869 0.7278325 -0.6511318 0.2151448
4.791517 5.529013 -5.74017 -0.5985862 -0.4515022 0.6616951
2.607984 1.731066 -7.499904 -0.234664 0.1814889 0.9549841
0.1613598 8.713142 -2.208294 0.1731067 -0.9821904 0.07304879
7.051508 1.875992 -2.702045 -0.9752513 0.1573346 0.1553408
-1.491118 1.018681 -6.821052 0.4485198 0.3002199 0.8418421
-2.090416 0.2025297 -6.050421 0.5484028 0.4362451 0.7134036
3.545812 8.342186 -1.821294 -0.3909686 -0.9203643 0.008548914
1.368431 3.105256 -7.760849 -0.0280718 -0.04754265 0.9984747
3.782596 5.119586 -6.673275 -0.4304327 -0.3832644 0.8172124
-2.353182 5.00751 -6.081577 0.5921971 -0.364585 0.7185962
6.58551 3.672973 -4.273739 -0.8975852 -0.1421622 0.4172898
-2.022164 5.450537 -6.094111 0.5370273 -0.4384229 0.7206851
5.935546 3.824694 -5.314742 -0.7892576 -0.167449 0.5907903
5.538535 6.435745 -3.795711 -0.7230892 -0.6026242 0.3376184
-3.379979 0.5652859 -4.922785 0.76333 0.3757857 0.5254641
5.155445 1.095121 -5.938843 -0.6592408 0.2874798 0.6948071
0.3042748 8.511145 -3.445873 0.1492876 -0.9485241 0.2793122
-0.6880763 0.1068022 -6.777367 0.3146794 0.4521996 0.8345612
2.501563 1.487791 -7.473608 -0.2169271 0.2220349 0.9506015
5.498336 0.6260712 -5.335247 -0.7163894 0.3656549 0.5942077
-3.995712 5.809581 -2.028808 0.865952 -0.4982635 0.04313466
-1.868245 7.922835 -2.509554 0.5113742 -0.8504726 0.1232589
0.3641036 5.255363 -7.189435 0.1393161 -0.4058939 0.9032393
1.55195 8.142885 -4.516456 -0.05865832 -0.8871476 0.4577426
-1.449242 8.142978 -2.574623 0.4415405 -0.887163 0.1341038
5.323206 1.446364 -5.906701 -0.687201 0.2289394 0.6894502
-2.943309 6.760245 -3.588643 0.6905515 -0.6567075 0.3031071
5.600683 6.024923 -4.292391 -0.7334472 -0.5341538 0.4203985
-0.1511036 8.126074 -4.223588 0.225184 -0.8843458 0.4089313
-1.03108 5.20726 -6.802224 0.3718467 -0.3978766 0.8387039
-1.902961 5.042067 -6.399693 0.5171601 -0.3703444 0.7716154
3.073362 8.498013 -2.270672 -0.3122271 -0.9463356 0.08344533
2.921166 8.192327 -3.813449 -0.2868609 -0.895388 0.3405747
-2.903536 0.2055445 -5.280787 0.6839225 0.4357426 0.5851312
-0.6646383 8.413209 -2.883166 0.310773 -0.9322014 0.1855277
6.210889 6.025883 -2.553141 -0.8351481 -0.5343138 0.1305235
0.2691014 7.949584 -4.739983 0.1551498 -0.8549306 0.4949971
-3.916318 4.551064 -4.382796 0.8527197 -0.2885108 0.4354661
-0.2297872 5.972795 -6.670571 0.2382979 -0.5254658 0.8167617
3.971513 8.042567 -2.79152 -0.461919 -0.8704278 0.1702533
-2.937013 6.817871 -3.473569 0.6895022 -0.6663119 0.2839282
-4.349164 2.617542 -4.042839 0.9248606 0.03374295 0.3788065
4.674283 6.832939 -4.567442 -0.5790471 -0.6688233 0.4662402
1.972377 7.754224 -5.095188 -0.1287295 -0.8223706 0.5541979
-4.517103 1.387541 -2.893742 0.9528505 0.2387431 0.1872904
0.6326174 5.438806 -7.13842 0.09456379 -0.4364677 0.8947366
1.315217 6.766466 -6.287979 -0.01920279 -0.6577443 0.7529964
3.791842 7.610549 -4.286544 -0.4319737 -0.7984249 0.419424
-3.37684 2.653979 -5.646206 0.7628068 0.0276701 0.6460342
4.247015 7.92193 -2.598259 -0.5078356 -0.8503217 0.1380432
0.4283444 8.639237 -3.011378 0.1286093 -0.969873 0.2068964
-2.576529 6.172098 -5.010566 0.6294216 -0.558683 0.5400942
-3.318858 0.9065903 -5.222359 0.753143 0.3189016 0.5753933
6.392554 2.30579 -4.731919 -0.8654258 0.0857017 0.4936531
-4.594689 1.768642 -2.917267 0.9657816 0.1752263 0.191211
5.918381 5.997812 -3.677458 -0.7863968 -0.5296354 0.3179094
-3.320941 0.6652758 -5.074278 0.7534903 0.3591207 0.5507129
2.988665 6.692926 -5.989137 -0.2981109 -0.6454878 0.7031895
2.718746 7.897967 -4.582056 -0.2531244 -0.8463279 0.468676
0.09861684 2.499912 -7.659355 0.1835639 0.05334795 0.9815591
5.212141 4.410637 -5.938046 -0.6686901 -0.2651062 0.6946742
1.073713 6.902478 -6.16516 0.02104781 -0.6804131 0.7325265
2.318537 8.671885 -2.480153 -0.1864226 -0.9753142 0.1183589
4.659926 4.258541 -6.456098 -0.5766544 -0.2397569 0.7810162
-2.743346 4.499918 -5.968559 0.6572245 -0.2799864 0.6997597
5.173123 5.16362 -5.606891 -0.6621873 -0.3906035 0.6394818
-0.7780786 3.986863 -7.313071 0.3296798 -0.1944771 0.9238452
-4.018587 0.2240305 -3.193831 0.8697644 0.4326616 0.2373053
-0.2477882 8.57032 -2.685277 0.241298 -0.9583867 0.152546
5.605822 1.316103 -5.555107 -0.7343036 0.2506495 0.6308511
-2.13703 6.512522 -5.121047 0.5561718 -0.6154203 0.5585077
-2.206856 1.55513 -6.544247 0.5678095 0.2108116 0.7957078
-3.04962 6.987676 -2.525778 0.7082701 -0.6946127 0.1259629
-2.316385 7.663514 -2.188817 0.5860642 -0.8072523 0.06980274
4.477954 4.404593 -6.539075 -0.5463256 -0.2640989 0.7948459
-0.03120077 8.637533 -2.570282 0.2052001 -0.9695889 0.1333802
-4.242594 5.174927 -2.682409 0.9070989 -0.3924879 0.1520682
6.979528 3.440065 -3.25747 -0.9632548 -0.1033441 0.2479116
5.652548 6.530638 -3.321124 -0.7420914 -0.6184397 0.2585205
-2.887361 6.899822 -3.397431 0.6812268 -0.6799704 0.2712384
3.785386 1.57582 -7.039516 -0.4308976 0.2073633 0.8782526
2.323073 8.675304 -2.443876 -0.1871789 -0.9758842 0.1123126
-2.54494 7.138663 -3.593341 0.6241567 -0.7197773 0.3038902
7.177063 3.252727 -2.065739 -0.9961773 -0.07212111 0.0492898
-4.607756 1.363752 -2.15642 0.9679592 0.242708 0.06440327
3.164625 4.467565 -7.194553 -0.3274374 -0.2745942 0.9040923
0.8723434 3.830665 -7.675184 0.05460946 -0.1684442 0.9841973
-3.945326 1.493132 -4.556583 0.8575543 0.2211446 0.4644306
5.150542 5.984105 -4.992058 -0.6584238 -0.5273509 0.5370095
-1.000737 7.655451 -4.558399 0.3667896 -0.8059085 0.4647332
2.972931 8.537012 -2.185314 -0.2954886 -0.9528354 0.0692189
1.023854 7.141477 -5.928583 0.02935763 -0.720246 0.6930972
1.676842 8.453032 -3.780368 -0.07947371 -0.9388386 0.3350613
-0.6023622 1.149524 -7.243664 0.3003937 0.2784126 0.9122774
0.1218603 8.66624 -2.581845 0.17969 -0.9743733 0.1353076
6.916896 1.214749 -2.630392 -0.9528159 0.2675418 0.1433985
-1.350872 7.028618 -5.202287 0.4251453 -0.7014363 0.5720477
6.771485 0.6719258 -2.356791 -0.9285809 0.3580124 0.09779845
5.285184 6.6993 -3.834537 -0.6808639 -0.6465499 0.3440893
3.852173 1.004637 -6.8366 -0.4420288 0.3025606 0.8444334
-3.395758 0.8992565 -5.115108 0.7659597 0.3201239 0.557518
5.902727 0.8548398 -4.935834 -0.783788 0.3275267 0.5276389
-0.630579 5.900081 -6.5827 0.3050965 -0.5133469 0.8021167
-1.422067 5.707302 -6.329413 0.4370112 -0.481217 0.7599022
1.859181 5.760245 -6.958491 -0.1098634 -0.490041 0.8647484
1.40317 8.556757 -3.51595 -0.03386167 -0.9561262 0.2909916
6.152338 0.1411157 -3.843144 -0.8253897 0.4464807 0.3455239
0.8069138 3.909557 -7.657134 0.06551437 -0.1815929 0.981189
0.7144939 0.8974345 -7.432864 0.08091769 0.3204276 0.9438106
2.712663 0.7348115 -7.188841 -0.2521105 0.3475314 0.9031402
3.086751 7.089667 -5.539631 -0.3144584 -0.7116112 0.6282718
-4.116927 5.148273 -3.289682 0.8861544 -0.3880455 0.2532803
1.974035 8.351555 -3.961522 -0.1290059 -0.9219258 0.3652537
2.661325 1.044369 -7.311811 -0.2435541 0.2959384 0.9236351
1.387589 8.712118 -2.887028 -0.03126489 -0.9820197 0.1861713
-1.702811 1.037192 -6.709159 0.4838018 0.2971347 0.8231931
1.154471 7.406073 -5.638574 0.007588149 -0.7643455 0.6447623
1.786897 6.954948 -6.077871 -0.0978162 -0.6891581 0.7179784
-4.791026 3.136845 -1.854971 0.9985043 -0.05280749 0.01416185
4.648869 7.725015 -1.984787 -0.5748115 -0.8175025 0.03579798
-1.216649 0.7145274 -6.842159 0.4027749 0.3509121 0.8453597
2.96418 8.543518 -2.129182 -0.29403 -0.9539196 0.05986375
1.412728 8.112984 -4.587636 -0.03545471 -0.8821639 0.469606
2.261184 8.683474 -2.472545 -0.1768639 -0.9772456 0.1170907
5.047622 7.418813 -1.986157 -0.6412703 -0.7664689 0.03602621
-3.509883 6.46521 -2.497628 0.7849806 -0.6075349 0.1212712
-3.212387 4.825405 -5.306834 0.7353978 -0.3342342 0.5894723
-4.562298 2.752468 -3.440737 0.960383 0.0112553 0.278456
6.32216 5.817292 -2.653018 -0.8536933 -0.4995486 0.1471696
6.144158 0.8784719 -4.560298 -0.8240265 0.323588 0.4650496
2.255062 2.771112 -7.676306 -0.1758437 0.008147917 0.9843844
6.693108 4.737203 -3.236324 -0.9155178 -0.3195338 0.2443874
0.9394153 7.814533 -5.084625 0.04343078 -0.8324222 0.5524374
6.048506 1.074589 -4.843358 -0.8080844 0.2909019 0.5122262
-4.274989 1.551219 -3.871115 0.9124982 0.2114636 0.3501859
-4.277441 0.9268446 -3.323579 0.9129068 0.3155259 0.2589298
2.399673 1.149729 -7.406575 -0.1999454 0.2783785 0.9394292
7.17537 2.393711 -2.106506 -0.9958949 0.07104813 0.05608434
4.900729 3.179179 -6.479097 -0.6167881 -0.05986317 0.7848495
-1.573167 7.972901 -3.095579 0.4621944 -0.8588169 0.2209297
-0.4295261 8.384225 -3.314038 0.2715877 -0.9273708 0.2573396
-1.991512 0.3250856 -6.196021 0.5319186 0.415819 0.7376701
-4.224387 1.36837 -3.883954 0.9040645 0.2419384 0.3523256
-1.634066 3.495752 -7.015134 0.4723442 -0.1126254 0.874189
0.1219205 5.114783 -7.207988 0.1796799 -0.3824639 0.9063314
6.017923 1.938679 -5.235673 -0.8029872 0.1468869 0.5776121
-3.215389 3.035437 -5.826837 0.7358983 -0.03590615 0.6761395
4.080945 8.029484 -2.519282 -0.4801576 -0.8682474 0.1248803
1.70102 2.684886 -7.747518 -0.08350334 0.02251908 0.996253
2.988092 8.51263 -2.399833 -0.2980153 -0.9487717 0.1049721
-0.9522789 4.346264 -7.158712 0.3587132 -0.2543774 0.8981186
-2.935602 3.388288 -6.079738 0.689267 -0.0947146 0.7182897
3.529011 3.237414 -7.283753 -0.3881685 -0.06956904 0.9189588
0.02583277 1.761673 -7.558029 0.1956946 0.1763879 0.9646714
-1.099315 8.310141 -2.525977 0.3832192 -0.9150234 0.1259961
-3.934824 5.610994 -3.127915 0.855804 -0.4651657 0.2263192
4.559307 2.126362 -6.692796 -0.5598846 0.1156064 0.820466
-3.659471 0.9682019 -4.762722 0.8099118 0.308633 0.498787
-1.390956 8.139021 -2.767479 0.431826 -0.8865035 0.1662464
3.061712 3.100455 -7.466961 -0.3102854 -0.04674252 0.9494936
5.973695 5.411555 -4.318661 -0.7956159 -0.4319259 0.4247768
-2.538885 0.8545132 -6.031174 0.6231475 0.3275811 0.7101956
5.590406 4.498671 -5.499128 -0.7317344 -0.2797785 0.6215214
-2.904827 3.83513 -6.026748 0.6841378 -0.1691884 0.7094582
1.537842 2.469575 -7.750223 -0.05630696 0.05840413 0.9967038
-0.3614726 3.828149 -7.474861 0.2602455 -0.1680248 0.9508101
4.552359 0.2561488 -6.034782 -0.5587264 0.4273085 0.710797
-3.408147 3.687095 -5.513411 0.7680246 -0.1445158 0.6239018
1.950777 8.66726 -2.886191 -0.1251295 -0.9745434 0.1860318
-4.285368 1.546297 -3.840851 0.914228 0.2122838 0.3451418
-1.398224 0.9832306 -6.856798 0.4330374 0.3061283 0.8477995
1.210504 1.183291 -7.542441 -0.001750588 0.2727848 0.9620735
0.3294682 2.376987 -7.689959 0.1450886 0.0738355 0.9866598
4.784226 7.629976 -1.902085 -0.597371 -0.8016628 0.02201413
1.600102 8.72064 -2.781119 -0.06668376 -0.98344 0.1685199
-4.406892 4.444323 -3.157207 0.934482 -0.2707205 0.2312011
6.740363 4.139802 -3.657459 -0.9233938 -0.219967 0.3145765
3.914459 1.523748 -6.961479 -0.4524098 0.2160419 0.8652464
-2.479744 1.008709 -6.14935 0.6132907 0.3018819 0.7298917
4.628666 7.62399 -2.849782 -0.5714442 -0.800665 0.1799636
-3.148336 6.830466 -2.774056 0.7247227 -0.6684111 0.1673427
-1.856524 5.911866 -5.904975 0.5094208 -0.515311 0.6891626
3.935763 5.291302 -6.503738 -0.4559604 -0.4118836 0.7889563
4.399434 7.581131 -3.529336 -0.5332388 -0.7935218 0.2932225
3.039338 2.59856 -7.47682 -0.3065564 0.03690664 0.9511368
6.391184 2.469689 -4.758126 -0.8651973 0.05838516 0.498021
-3.414358 6.610255 -2.354515 0.7690598 -0.6317092 0.09741913
4.096539 2.25015 -6.993536 -0.4827566 0.09497496 0.8705894
2.34222 6.412366 -6.438001 -0.19037 -0.5987278 0.7780002
2.976547 8.545404 -2.022226 -0.2960911 -0.9542342 0.04203773
-0.1557144 6.052859 -6.639359 0.2259524 -0.5388099 0.8115599
3.735415 2.59275 -7.203234 -0.4225692 0.03787498 0.905539
-1.627874 3.084187 -7.0552 0.4713124 -0.04403123 0.8808666
3.180483 8.482423 -1.891076 -0.3300804 -0.943737 0.02017924
1.956425 6.439483 -6.495163 -0.1260709 -0.6032472 0.7875272
1.32068 1.059395 -7.504606 -0.02011339 0.2934341 0.9557677
3.047693 7.442066 -5.120005 -0.3079489 -0.7703445 0.5583341
4.918003 0.9675252 -6.099525 -0.6196672 0.3087458 0.7215876
-2.024114 0.8031569 -6.410844 0.5373523 0.3361405 0.773474
1.732479 7.406635 -5.60135 -0.08874643 -0.7644393 0.6385583
-3.542361 6.21764 -3.172161 0.7903935 -0.5662733 0.2336935
0.4816061 4.222198 -7.559453 0.1197323 -0.2336996 0.9649087
-1.147065 7.467854 -4.7514 0.3911775 -0.7746423 0.4968998
-0.4908187 3.434173 -7.493978 0.2818031 -0.1023622 0.9539963
-0.8229339 7.062787 -5.499142 0.3371557 -0.7071312 0.6215236
1.224798 8.55925 -3.5194 -0.004132986 -0.9565416 0.2915665
-4.214982 0.3874838 -2.642259 0.9024969 0.4054193 0.1453766
6.920217 3.918208 -3.209812 -0.9533694 -0.1830347 0.2399687
-2.327056 7.342357 -3.532998 0.5878426 -0.7537263 0.2938329
1.453163 8.329258 -4.133046 -0.04219389 -0.9182096 0.3938409
-3.975607 4.858797 -4.018645 0.8626011 -0.3397995 0.3747741
6.654115 0.4983251 -2.698689 -0.9090191 0.3869458 0.1547813
-3.364617 3.530436 -5.598779 0.7607695 -0.118406 0.6381299
6.28743 6.000443 -1.823216 -0.847905 -0.5300739 0.008869417
-0.9987013 8.204473 -3.244163 0.3664502 -0.8974123 0.2456938
-4.354138 2.967042 -4.034934 0.9256898 -0.02450705 0.3774889
-1.618783 7.925825 -3.178903 0.4697971 -0.8509709 0.2348172
0.3784658 8.711341 -2.555607 0.1369224 -0.9818902 0.1309347
-3.622452 4.291404 -5.022528 0.8037419 -0.245234 0.542088
1.713934 4.395349 -7.536642 -0.08565573 -0.2625581 0.9611068
-3.663109 4.891412 -4.608912 0.8105183 -0.3452353 0.473152
3.201264 8.458447 -2.220402 -0.333544 -0.9397411 0.0750671
-2.534976 6.937425 -4.027602 0.622496 -0.6862376 0.3762669
-0.4784982 8.464628 -2.919268 0.2797497 -0.9407714 0.1915446
6.481171 4.094113 -4.316737 -0.8801951 -0.2123522 0.424456
5.995917 0.9415402 -4.847429 -0.7993196 0.3130766 0.5129048
-2.171835 6.941409 -4.534907 0.5619726 -0.6869015 0.4608179
-4.747436 3.265607 -2.425323 0.9912392 -0.07426782 0.1092205
3.094368 8.238076 -3.518089 -0.315728 -0.9030128 0.2913482
0.07194352 7.640919 -5.159134 0.1880094 -0.8034865 0.5648557
4.107307 6.959036 -4.997375 -0.4845511 -0.6898394 0.5378958
-3.962213 5.437909 -3.350539 0.8603689 -0.4363182 0.2634232
6.376122 3.318834 -4.763147 -0.862687 -0.08313892 0.4988578
0.9028071 8.592658 -3.378757 0.04953216 -0.9621096 0.2681261
-0.2276224 1.029406 -7.315779 0.2379371 0.2984324 0.9242966
6.808568 2.384571 -3.856711 -0.9347614 0.07257143 0.3477852
0.00367856 5.649367 -6.923979 0.1993869 -0.4715612 0.8589965
-4.428701 4.870075 -2.108988 0.9381169 -0.3416792 0.05649797
1.63669 8.426624 -3.861668 -0.07278161 -0.9344373 0.3486113
-0.6868808 8.512842 -1.94673 0.3144801 -0.948807 0.02945495
0.5262502 7.992303 -4.735359 0.1122916 -0.8620504 0.4942265
4.957212 2.542579 -6.439733 -0.626202 0.0462368 0.7782886
-2.006258 7.696645 -3.162207 0.5343764 -0.8127742 0.2320345
0.5752396 8.523293 -3.525596 0.1041268 -0.9505489 0.2925993
-4.177481 5.166727 -3.025218 0.8962468 -0.3911212 0.209203
0.4990422 8.488964 -3.606164 0.1168263 -0.9448275 0.306027
5.300527 7.19748 -1.922791 -0.6834211 -0.7295801 0.02546505
-4.455418 2.101007 -3.640642 0.9425696 0.1198321 0.3117735
3.091126 8.390441 -2.950611 -0.3151876 -0.9284067 0.1967683
5.322806 6.341303 -4.339609 -0.6871344 -0.5868839 0.428268
1.001424 8.387924 -3.996834 0.03309602 -0.9279874 0.3711387
-3.470607 3.138567 -5.522859 0.7784345 -0.05309454 0.6254764
-2.842889 6.027329 -4.830733 0.6738148 -0.5345549 0.5101223
-3.688277 6.266771 -2.243833 0.8147128 -0.5744619 0.07897218
0.4753788 8.309805 -4.080187 0.1207702 -0.9149676 0.3850311
6.670067 5.236539 -2.258579 -0.9116778 -0.4027565 0.08143
2.044639 5.623301 -7.007184 -0.1407732 -0.4672168 0.8728639
-1.36204 3.608206 -7.137931 0.4270066 -0.1313677 0.8946552
7.00862 4.246971 -2.24296 -0.9681033 -0.2378285 0.07882664
0.2490038 7.645717 -5.206286 0.1584994 -0.8042861 0.5727144
-0.630059 1.340384 -7.289205 0.3050099 0.2466027 0.9198674
1.436961 5.954253 -6.880803 -0.03949351 -0.5223755 0.8518005
3.154773 8.123408 -3.783139 -0.3257954 -0.8839014 0.3355232
6.056877 5.893848 -3.491104 -0.8094796 -0.5123081 0.2868505
4.447456 1.749259 -6.700268 -0.5412427 0.1784569 0.8217113
-3.369854 4.437276 -5.305655 0.7616423 -0.2695461 0.5892758
2.284689 8.0952 -4.414943 -0.1807815 -0.8791999 0.4408237
-4.618649 1.969403 -2.961558 0.9697748 0.1417662 0.198593
3.16563 1.191147 -7.199838 -0.3276049 0.2714755 0.904973
4.051666 4.528187 -6.765007 -0.4752777 -0.2846978 0.8325012
6.782562 2.862161 -3.968457 -0.9304271 -0.007026912 0.3664096
-0.6102748 0.5967245 -7.040669 0.3017125 0.3705459 0.8784449
4.829817 2.769686 -6.547227 -0.6049695 0.008385658 0.7962045
0.8983097 8.507245 -3.657917 0.0502817 -0.9478741 0.3146527
-2.242016 3.400304 -6.65014 0.5736695 -0.09671734 0.8133567
-0.7572434 8.363373 -2.970089 0.3262073 -0.9238955 0.2000149
5.195078 7.282045 -2.129865 -0.6658463 -0.7436743 0.05997738
-2.658348 7.122548 -3.382834 0.6430579 -0.7170914 0.2688055
1.95064 2.306098 -7.700636 -0.1251067 0.08565041 0.9884393
-3.253636 0.8163731 -5.255773 0.7422726 0.3339378 0.5809621
6.047727 6.353995 -1.872108 -0.8079544 -0.5889991 0.01701809
1.966692 7.944728 -4.794789 -0.127782 -0.8541213 0.5041314
6.779299 3.515498 -3.864686 -0.9298832 -0.1159163 0.3491141
-2.040022 5.695571 -5.921307 0.5400036 -0.4792619 0.6918845
-4.734927 2.174345 -2.369809 0.9891546 0.1076091 0.09996813
-1.78108 1.269294 -6.740762 0.4968468 0.2584509 0.8284603
5.927469 0.01899171 -4.179439 -0.7879115 0.4668347 0.4015729
4.327811 0.996606 -6.554562 -0.5213019 0.303899 0.7974269
-1.165642 8.287242 -2.486239 0.3942736 -0.9112071 0.119373
0.3452896 7.971167 -4.725496 0.1424517 -0.8585278 0.4925825
-0.4697661 8.464433 -2.932869 0.2782943 -0.9407387 0.1938114
5.689957 2.383001 -5.725923 -0.7483261 0.07283321 0.6593204
-2.337199 0.2445381 -5.87551 0.5895333 0.4292437 0.6842517
-0.2885971 8.596095 -2.418698 0.2480995 -0.9626825 0.1081162
3.113645 2.044178 -7.403477 -0.3189408 0.1293036 0.9389128
7.052547 2.094677 -2.875258 -0.9754246 0.1208872 0.1842095
5.920373 -0.07507348 -4.080115 -0.7867289 0.4825122 0.385019
0.6410967 8.243934 -4.273711 0.09315055 -0.903989 0.4172852
1.819897 5.391596 -7.155408 -0.1033161 -0.4285994 0.897568
-4.16386 1.837942 -4.272913 0.8939767 0.1636763 0.417152
-1.227261 8.077898 -3.339365 0.4045436 -0.8763163 0.2615609
-4.242526 0.4046948 -2.508382 0.9070877 0.4025509 0.1230634
5.770639 4.100512 -5.440088 -0.7617733 -0.2134186 0.6116813
-0.6228032 8.530135 -2.037862 0.3038006 -0.9516891 0.04464367
3.923536 6.772431 -5.370089 -0.4539227 -0.6587385 0.6000148
-3.422555 4.390667 -5.257834 0.7704259 -0.2617779 0.5813057
1.434331 6.60846 -6.41679 -0.03905521 -0.6314101 0.774465
-1.404386 7.644166 -4.208154 0.4340643 -0.8040277 0.406359
6.229351 -0.1351831 -3.174465 -0.8382252 0.4925305 0.2340776
6.089966 3.288464 -5.215108 -0.8149944 -0.07807739 0.5741847
2.983669 8.543849 -2.006805 -0.2972783 -0.9539747 0.03946754
5.544436 5.324594 -5.064372 -0.7240726 -0.4174324 0.5490621
-4.467927 0.8584275 -1.93384 0.9446544 0.3269287 0.02730664
2.34778 8.570933 -3.03861 -0.1912967 -0.9584888 0.2114351
-1.254073 5.307103 -6.647688 0.4090121 -0.4145172 0.8129481
-3.927732 0.03144574 -3.159364 0.854622 0.464759 0.2315607
-4.142347 2.920356 -4.499331 0.8903913 -0.01672594 0.4548885
2.030051 8.673547 -2.793232 -0.1383419 -0.9755912 0.1705386
6.311967 1.576653 -4.654766 -0.8519946 0.2072245 0.4807945
5.249151 6.486441 -4.252254 -0.6748585 -0.6110735 0.413709
3.59806 7.83284 -4.032908 -0.3996765 -0.8354732 0.3771512
